-5.069150924682617188e+00 -8.139446258544921875e+00 8.306320190429687500e+01
-2.445701360702514648e+00 -7.757234573364257812e+00 7.942572021484375000e+01
-2.237441301345825195e+00 -5.113677024841308594e+00 7.968525695800781250e+01
-1.503106832504272461e+00 -1.257703113555908203e+01 7.859183502197265625e+01
4.726643753051757812e+01 -9.340635538101196289e-01 8.984000205993652344e+00
-2.654374313354492188e+01 -5.303581714630126953e+00 1.239960250854492188e+02
9.516860246658325195e-01 -1.935868453979492188e+01 7.986614990234375000e+01
-1.677397727966308594e+01 -8.166947364807128906e+00 1.102721557617187500e+02
-3.736186981201171875e+01 8.038660883903503418e-01 1.457886047363281250e+02
-1.212655830383300781e+01 -8.830499649047851562e-01 1.049823455810546875e+02
-7.715553641319274902e-01 -1.315227985382080078e+01 8.694976806640625000e+01
1.182535839080810547e+01 -2.760341882705688477e+00 6.843560791015625000e+01
1.314406633377075195e+00 -1.277439594268798828e+01 8.485534667968750000e+01
2.389344406127929688e+01 5.682519435882568359e+00 5.205541229248046875e+01
2.204289627075195312e+01 2.014655828475952148e+00 5.503796386718750000e+01
4.691503143310546875e+01 -1.061691880226135254e+00 1.003208446502685547e+01
2.725405311584472656e+01 -5.027892589569091797e-01 4.570122909545898438e+01
2.725405311584472656e+01 -5.027892589569091797e-01 4.570122909545898438e+01
2.450662994384765625e+01 4.408864974975585938e+00 5.218067169189453125e+01
2.560627555847167969e+01 9.558629989624023438e-01 5.016704559326171875e+01
2.627581405639648438e+01 6.044269084930419922e+00 4.985393142700195312e+01
2.633756828308105469e+01 6.352438330650329590e-01 4.904380416870117188e+01
2.656089210510253906e+01 3.685116171836853027e-01 4.887308120727539062e+01
2.827745819091796875e+01 4.635589122772216797e+00 4.642415618896484375e+01
2.710996437072753906e+01 -1.119824767112731934e+00 4.779559326171875000e+01
2.794238662719726562e+01 -2.150919675827026367e+00 4.622750473022460938e+01
2.738090133666992188e+01 -1.055452466011047363e+00 4.762719726562500000e+01
2.738090133666992188e+01 -1.055452466011047363e+00 4.762719726562500000e+01
2.875599479675292969e+01 2.113259553909301758e+00 4.596587753295898438e+01
2.921311950683593750e+01 1.207238554954528809e+00 4.496712875366210938e+01
4.560594940185546875e+01 -1.273801445960998535e+00 1.194469928741455078e+01
4.173382186889648438e+01 -3.029086828231811523e+00 1.978212928771972656e+01
4.209728240966796875e+01 -2.907132148742675781e+00 1.915922737121582031e+01
3.200315475463867188e+01 -9.693245291709899902e-01 4.141341018676757812e+01
3.296718978881835938e+01 -1.071622610092163086e+00 3.952720260620117188e+01
3.140953826904296875e+01 -2.028466224670410156e+00 4.291521072387695312e+01
3.293531799316406250e+01 3.177811205387115479e-01 4.160326766967773438e+01
3.273358154296875000e+01 -4.787799358367919922e+00 4.134608840942382812e+01
3.086776161193847656e+01 -6.824477195739746094e+00 4.531564331054687500e+01
1.618678474426269531e+01 -6.883167743682861328e+00 8.040452575683593750e+01
3.167733001708984375e+01 1.389391183853149414e+00 4.606873703002929688e+01
3.422977447509765625e+01 -3.674186468124389648e+00 3.956893920898437500e+01
1.030296421051025391e+01 -2.299244308471679688e+01 9.469212341308593750e+01
1.030296421051025391e+01 -2.299244308471679688e+01 9.469212341308593750e+01
3.389361572265625000e+01 -4.582840442657470703e+00 4.033430862426757812e+01
3.219329833984375000e+01 -7.709780216217041016e+00 4.408026885986328125e+01
3.277377700805664062e+01 -7.147611141204833984e+00 4.369519042968750000e+01
1.300698280334472656e+01 5.379703998565673828e+00 9.832926177978515625e+01
3.624265670776367188e+01 -1.671375632286071777e+00 3.815414047241210938e+01
3.512057113647460938e+01 -4.761992454528808594e+00 4.057246398925781250e+01
3.561973953247070312e+01 -3.773559331893920898e+00 3.995897674560546875e+01
3.587325668334960938e+01 5.593736648559570312e+00 4.172948455810546875e+01
3.556269454956054688e+01 -3.957926988601684570e+00 4.048643875122070312e+01
3.600072479248046875e+01 -2.959629595279693604e-01 4.026460266113281250e+01
3.600072479248046875e+01 -2.959629595279693604e-01 4.026460266113281250e+01
3.605477142333984375e+01 -1.241305992007255554e-01 4.275325393676757812e+01
3.643017196655273438e+01 -1.798115856945514679e-02 4.177083969116210938e+01
3.086386871337890625e+01 1.324579119682312012e+00 6.012807846069335938e+01
3.671417617797851562e+01 -6.789181232452392578e-01 4.132117462158203125e+01
1.809844207763671875e+01 -2.290906715393066406e+01 9.759249114990234375e+01
1.809844207763671875e+01 -2.290906715393066406e+01 9.759249114990234375e+01
3.646534729003906250e+01 -4.373999595642089844e+00 4.279092025756835938e+01
3.687064743041992188e+01 -4.568153381347656250e+00 4.542582702636718750e+01
2.491518974304199219e+01 -2.103416061401367188e+01 9.760675811767578125e+01
3.098181915283203125e+01 3.194570064544677734e+00 8.050230407714843750e+01
3.098181915283203125e+01 3.194570064544677734e+00 8.050230407714843750e+01
2.501343536376953125e+01 -2.300075149536132812e+01 1.004936523437500000e+02
3.777391433715820312e+01 -6.167877912521362305e-01 5.141944885253906250e+01
2.930721855163574219e+01 -1.725094604492187500e+01 8.811804962158203125e+01
3.063744163513183594e+01 -1.783006095886230469e+01 8.367905426025390625e+01
2.881060600280761719e+01 -1.756627655029296875e+01 9.686417388916015625e+01
3.837813949584960938e+01 -2.712005376815795898e-01 5.331356430053710938e+01
3.839814758300781250e+01 -6.648923754692077637e-01 5.381233596801757812e+01
3.856806182861328125e+01 -6.796375513076782227e-01 5.296356582641601562e+01
2.865691947937011719e+01 -2.393661308288574219e+01 9.744174194335937500e+01
2.865691947937011719e+01 -2.393661308288574219e+01 9.744174194335937500e+01
3.670951843261718750e+01 -7.751029014587402344e+00 6.058017730712890625e+01
3.796730041503906250e+01 -2.280404418706893921e-01 5.721824645996093750e+01
2.903493309020996094e+01 -2.481105804443359375e+01 9.801053619384765625e+01
2.903493309020996094e+01 -2.481105804443359375e+01 9.801053619384765625e+01
3.531365585327148438e+01 2.812189102172851562e+00 7.741989135742187500e+01
2.983368873596191406e+01 -2.312459373474121094e+01 9.812227630615234375e+01
3.834484100341796875e+01 -6.403964042663574219e+00 5.795006942749023438e+01
3.834484100341796875e+01 -6.403964042663574219e+00 5.795006942749023438e+01
3.833651733398437500e+01 -5.874120712280273438e+00 5.899841308593750000e+01
3.132692909240722656e+01 -1.554506492614746094e+01 9.963426971435546875e+01
3.109772682189941406e+01 -2.595645141601562500e+01 9.730939483642578125e+01
3.881490325927734375e+01 -3.503027439117431641e+00 5.834209060668945312e+01
3.804961013793945312e+01 -2.222586154937744141e+00 6.430281829833984375e+01
3.203632736206054688e+01 -1.748274803161621094e+01 9.623834228515625000e+01
3.283921051025390625e+01 1.193773269653320312e+00 1.018019256591796875e+02
3.573414230346679688e+01 5.120637893676757812e+00 8.489421081542968750e+01
3.238352203369140625e+01 -1.415938472747802734e+01 1.003491287231445312e+02
3.238352203369140625e+01 -1.415938472747802734e+01 1.003491287231445312e+02
3.234695434570312500e+01 -1.406570816040039062e+01 1.010635223388671875e+02
3.290813827514648438e+01 -1.571727371215820312e+01 9.882381439208984375e+01
3.316809844970703125e+01 -1.918901252746582031e+01 9.633245849609375000e+01
3.350978469848632812e+01 -7.765476226806640625e+00 1.010924224853515625e+02
3.384391784667968750e+01 -1.556561088562011719e+01 9.743449401855468750e+01
3.418831253051757812e+01 -1.353013324737548828e+01 9.694973754882812500e+01
3.435902404785156250e+01 -1.625160980224609375e+01 9.520149230957031250e+01
3.348796081542968750e+01 -1.032695960998535156e+01 1.081120376586914062e+02
3.418831634521484375e+01 -1.313029289245605469e+01 1.005872879028320312e+02
3.418831634521484375e+01 -1.313029289245605469e+01 1.005872879028320312e+02
3.343101882934570312e+01 -2.301382446289062500e+01 1.018805465698242188e+02
3.518980789184570312e+01 -5.885661125183105469e+00 1.016011734008789062e+02
3.519037246704101562e+01 -1.303177642822265625e+01 9.993584442138671875e+01
3.567437744140625000e+01 -5.420850753784179688e+00 1.025852279663085938e+02
3.567437744140625000e+01 -5.420850753784179688e+00 1.025852279663085938e+02
3.752888107299804688e+01 1.899979782104492188e+01 1.040322265625000000e+02
3.539292907714843750e+01 -1.225986576080322266e+01 1.012116165161132812e+02
3.548889160156250000e+01 -2.251144027709960938e+01 9.565193176269531250e+01
3.598406600952148438e+01 -1.252756500244140625e+01 1.004381408691406250e+02
3.630064773559570312e+01 -6.019042015075683594e+00 1.045386047363281250e+02
3.635866546630859375e+01 -1.180409049987792969e+01 1.019408340454101562e+02
3.635866546630859375e+01 -1.180409049987792969e+01 1.019408340454101562e+02
3.707809448242187500e+01 -1.346202087402343750e+01 9.530806732177734375e+01
3.686048889160156250e+01 -1.554831218719482422e+01 9.745313262939453125e+01
3.707815933227539062e+01 -1.046971893310546875e+01 1.004643249511718750e+02
3.705116653442382812e+01 -9.074753761291503906e+00 1.021736679077148438e+02
3.685908508300781250e+01 -1.369390010833740234e+01 1.032454147338867188e+02
3.685908508300781250e+01 -1.369390010833740234e+01 1.032454147338867188e+02
3.732527542114257812e+01 -1.176597785949707031e+01 1.024344100952148438e+02
3.693540954589843750e+01 -2.553639411926269531e+01 9.847643280029296875e+01
3.693540954589843750e+01 -2.553639411926269531e+01 9.847643280029296875e+01
3.726918411254882812e+01 -2.335728263854980469e+01 9.832438659667968750e+01
3.842995452880859375e+01 -9.353985786437988281e+00 9.962360382080078125e+01
3.801851272583007812e+01 -1.462616443634033203e+01 9.991957855224609375e+01
3.801851272583007812e+01 -1.462616443634033203e+01 9.991957855224609375e+01
3.772222137451171875e+01 -1.999299240112304688e+01 9.861919403076171875e+01
3.844746017456054688e+01 -1.425700092315673828e+01 9.970201873779296875e+01
3.844746017456054688e+01 -1.425700092315673828e+01 9.970201873779296875e+01
3.912677383422851562e+01 -1.744083213806152344e+01 9.961562347412109375e+01
4.062870407104492188e+01 -6.126963615417480469e+00 9.989588928222656250e+01
4.135074615478515625e+01 -6.352433204650878906e+00 9.999348449707031250e+01
5.116062927246093750e+01 -1.166031956672668457e+00 6.969283580780029297e+00
4.839441680908203125e+01 -1.284134626388549805e+00 9.409935951232910156e+00
3.520427048206329346e-01 -1.316348648071289062e+01 5.337060165405273438e+01
-5.872485160827636719e+00 -1.176127529144287109e+01 6.185475540161132812e+01
-8.278342247009277344e+00 -1.105254173278808594e+01 6.441454315185546875e+01
-6.025940418243408203e+00 -1.468598937988281250e+01 6.232267761230468750e+01
-4.183519363403320312e+00 -1.422221469879150391e+01 6.057719802856445312e+01
-5.684902191162109375e+00 -1.005515575408935547e+01 6.335455703735351562e+01
-5.249441146850585938e+00 -1.380675697326660156e+01 6.250149536132812500e+01
-5.249441146850585938e+00 -1.380675697326660156e+01 6.250149536132812500e+01
-5.750643730163574219e+00 -1.448122501373291016e+01 6.358491134643554688e+01
-6.067128658294677734e+00 -1.271953964233398438e+01 6.420471954345703125e+01
-2.505435347557067871e-01 -8.979655265808105469e+00 6.071774291992187500e+01
4.826792144775390625e+01 -1.116757750511169434e+00 9.510600090026855469e+00
-2.663253307342529297e+00 -1.347881793975830078e+01 6.403787231445312500e+01
-3.720299482345581055e+00 -1.299987506866455078e+01 6.590370941162109375e+01
-1.352630734443664551e+00 -1.007115364074707031e+01 6.381591796875000000e+01
-3.861793518066406250e+00 -1.452533054351806641e+01 6.656111907958984375e+01
-1.635308623313903809e+00 -9.154765129089355469e+00 6.476993560791015625e+01
-2.528236389160156250e+00 -1.050948619842529297e+01 6.612325286865234375e+01
-2.579976320266723633e+00 -1.455378150939941406e+01 6.572891998291015625e+01
2.651406097412109375e+01 3.741986274719238281e+00 3.499758911132812500e+01
-1.898239612579345703e+00 -9.385989189147949219e+00 6.689357757568359375e+01
-4.534389495849609375e+00 -1.328626441955566406e+01 6.949952697753906250e+01
2.312118148803710938e+01 4.059597015380859375e+00 3.957256698608398438e+01
-1.543471574783325195e+00 -1.055350875854492188e+01 6.859772491455078125e+01
-1.543471574783325195e+00 -1.055350875854492188e+01 6.859772491455078125e+01
-2.745072126388549805e+00 -9.101327896118164062e+00 7.034335327148437500e+01
-2.229851245880126953e+00 1.364555740356445312e+01 7.346398162841796875e+01
-1.443782925605773926e+00 1.203168773651123047e+01 7.296086883544921875e+01
-1.367931008338928223e+00 -7.978040218353271484e+00 7.078851318359375000e+01
-1.939289569854736328e+00 -7.708097457885742188e+00 7.165866851806640625e+01
-1.241719245910644531e+00 1.221314144134521484e+01 7.477800750732421875e+01
4.031395721435546875e+01 -2.460069179534912109e+00 1.935318374633789062e+01
-4.173238277435302734e-01 -5.430824279785156250e+00 7.268768310546875000e+01
5.923019647598266602e-01 -5.257083892822265625e+00 7.195500183105468750e+01
5.923019647598266602e-01 -5.257083892822265625e+00 7.195500183105468750e+01
5.923019647598266602e-01 -5.257083892822265625e+00 7.195500183105468750e+01
6.335406899452209473e-01 -7.377538681030273438e+00 7.191725158691406250e+01
1.222360610961914062e+00 -9.006516456604003906e+00 7.125828552246093750e+01
5.395560264587402344e-01 -7.895018100738525391e+00 7.233934020996093750e+01
4.919268035888671875e+01 -1.815283894538879395e+00 7.803102016448974609e+00
1.773812532424926758e+00 -7.178839683532714844e+00 7.356719207763671875e+01
2.263835430145263672e+00 -4.764520168304443359e+00 7.338348388671875000e+01
2.999961853027343750e+00 -1.154122543334960938e+01 7.228702545166015625e+01
3.719832420349121094e+00 1.963282585144042969e+00 7.409854125976562500e+01
3.305983066558837891e+00 2.449237585067749023e+00 7.550392150878906250e+01
4.574562454223632812e+01 -1.328059792518615723e+00 1.323210620880126953e+01
1.433812379837036133e+00 -7.615068435668945312e+00 7.723034667968750000e+01
3.819403171539306641e+00 -8.287343978881835938e+00 7.434738159179687500e+01
3.819403171539306641e+00 -8.287343978881835938e+00 7.434738159179687500e+01
5.496792793273925781e+00 -1.757147979736328125e+01 7.304105377197265625e+01
-9.303787231445312500e+00 -7.113421916961669922e+00 9.867837524414062500e+01
4.163744354248046875e+01 -1.044927239418029785e+00 1.985668373107910156e+01
7.198527812957763672e+00 -1.131050205230712891e+01 7.530238342285156250e+01
1.150250816345214844e+01 -1.372280836105346680e+00 7.017485046386718750e+01
2.311524581909179688e+01 5.788392066955566406e+00 5.342828369140625000e+01
2.058571434020996094e+01 2.112280368804931641e+00 5.760558700561523438e+01
2.179410552978515625e+01 -4.188492000102996826e-01 5.535826873779296875e+01
2.179410552978515625e+01 -4.188492000102996826e-01 5.535826873779296875e+01
2.183985710144042969e+01 7.279980659484863281e+00 5.694012451171875000e+01
4.596573257446289062e+01 -1.356639623641967773e+00 1.296080684661865234e+01
2.579057884216308594e+01 4.595627307891845703e+00 5.088516235351562500e+01
2.690846633911132812e+01 2.103520154953002930e+00 4.863608932495117188e+01
2.690846633911132812e+01 2.103520154953002930e+00 4.863608932495117188e+01
2.756864166259765625e+01 -1.126059889793395996e+00 4.726057815551757812e+01
2.756864166259765625e+01 -1.126059889793395996e+00 4.726057815551757812e+01
2.846595191955566406e+01 -4.256365299224853516e+00 4.548493194580078125e+01
2.955028343200683594e+01 -2.585999965667724609e-01 4.441684341430664062e+01
3.088682365417480469e+01 -1.105505108833312988e+00 4.378675460815429688e+01
3.217179107666015625e+01 -1.160403013229370117e+00 4.132452774047851562e+01
3.280429840087890625e+01 2.716832756996154785e-01 4.187723159790039062e+01
3.369205856323242188e+01 -4.577671051025390625e+00 3.928386306762695312e+01
3.206780242919921875e+01 -6.447604179382324219e+00 4.273904418945312500e+01
3.319174194335937500e+01 -1.519548296928405762e+00 4.192135620117187500e+01
3.135979080200195312e+01 1.428818106651306152e+00 4.679364395141601562e+01
3.387120056152343750e+01 -4.895796298980712891e+00 4.021932220458984375e+01
3.082438850402832031e+01 -9.125440597534179688e+00 4.673925018310546875e+01
3.261842727661132812e+01 -7.562543392181396484e+00 4.311299133300781250e+01
3.496068954467773438e+01 -3.979188919067382812e+00 3.868648147583007812e+01
1.659018325805664062e+01 -1.871976280212402344e+01 7.907453155517578125e+01
3.346194839477539062e+01 -6.874408245086669922e+00 4.209840393066406250e+01
1.824486160278320312e+01 -1.826666069030761719e+01 7.653901672363281250e+01
1.667933654785156250e+01 -1.873921775817871094e+01 8.055850982666015625e+01
1.667933654785156250e+01 -1.873921775817871094e+01 8.055850982666015625e+01
3.546857833862304688e+01 -4.709044933319091797e+00 3.968660354614257812e+01
3.703617858886718750e+01 4.808798313140869141e+00 3.848909759521484375e+01
3.607574081420898438e+01 -3.291199207305908203e-01 4.005397796630859375e+01
3.607574081420898438e+01 -3.291199207305908203e-01 4.005397796630859375e+01
3.664489746093750000e+01 -7.931964844465255737e-02 4.112892532348632812e+01
3.696048355102539062e+01 -7.269667983055114746e-01 4.057807540893554688e+01
3.749863433837890625e+01 -6.022058129310607910e-01 4.125983810424804688e+01
2.589624977111816406e+01 -1.774148178100585938e+01 7.994190216064453125e+01
3.803805923461914062e+01 -5.179408073425292969e+00 4.281678009033203125e+01
3.789923858642578125e+01 -4.713950634002685547e+00 4.429782485961914062e+01
4.802529525756835938e+01 -8.647440075874328613e-01 8.082767486572265625e+00
3.300870513916015625e+01 4.410475730895996094e+00 6.950624084472656250e+01
3.772315979003906250e+01 -1.661050319671630859e-02 4.943849563598632812e+01
3.322158050537109375e+01 2.449476242065429688e+00 7.072666931152343750e+01
3.322158050537109375e+01 2.449476242065429688e+00 7.072666931152343750e+01
2.952838897705078125e+01 -1.689276313781738281e+01 7.949713897705078125e+01
4.803410339355468750e+01 -1.622106552124023438e+00 7.101446628570556641e+00
3.897814178466796875e+01 -7.374908328056335449e-01 4.611231613159179688e+01
2.962752532958984375e+01 6.367552280426025391e+00 9.130130004882812500e+01
3.130222892761230469e+01 -1.559821987152099609e+01 7.821381378173828125e+01
3.236059951782226562e+01 -1.442290210723876953e+01 7.484980010986328125e+01
3.236059951782226562e+01 -1.442290210723876953e+01 7.484980010986328125e+01
3.927268600463867188e+01 -4.486779689788818359e+00 4.631775665283203125e+01
3.931167984008789062e+01 -4.493076801300048828e+00 4.615723419189453125e+01
3.936669540405273438e+01 -3.957751095294952393e-01 4.844256591796875000e+01
3.045779037475585938e+01 -1.787497329711914062e+01 8.464817810058593750e+01
3.924059295654296875e+01 -7.466270327568054199e-01 4.959592437744140625e+01
3.860842132568359375e+01 -6.667039871215820312e+00 5.138965988159179688e+01
3.284857940673828125e+01 -1.393174076080322266e+01 7.779724121093750000e+01
3.267509460449218750e+01 -1.896089935302734375e+01 7.850014495849609375e+01
3.267509460449218750e+01 -1.896089935302734375e+01 7.850014495849609375e+01
3.199462890625000000e+01 -1.574840354919433594e+01 8.382604217529296875e+01
3.328368377685546875e+01 -1.703509140014648438e+01 7.837066650390625000e+01
3.305814743041992188e+01 -1.952558135986328125e+01 7.852443695068359375e+01
3.305814743041992188e+01 -1.952558135986328125e+01 7.852443695068359375e+01
3.742392349243164062e+01 2.039683818817138672e+00 6.539063262939453125e+01
3.366053771972656250e+01 -1.824084091186523438e+01 7.870158386230468750e+01
3.991574859619140625e+01 -5.534023284912109375e+00 4.939377593994140625e+01
3.942884826660156250e+01 -5.345102787017822266e+00 5.291395950317382812e+01
3.441561126708984375e+01 -1.449565219879150391e+01 7.868883514404296875e+01
3.442070388793945312e+01 -1.634041976928710938e+01 7.812171936035156250e+01
3.442070388793945312e+01 -1.634041976928710938e+01 7.812171936035156250e+01
3.951857757568359375e+01 -2.080822229385375977e+00 5.553704071044921875e+01
3.951857757568359375e+01 -2.080822229385375977e+00 5.553704071044921875e+01
3.550674438476562500e+01 7.523896694183349609e-01 8.232851409912109375e+01
3.472884750366210938e+01 -1.244380378723144531e+01 8.039282226562500000e+01
3.486820602416992188e+01 -1.441837501525878906e+01 8.010486602783203125e+01
3.526820373535156250e+01 7.454379200935363770e-01 8.619604492187500000e+01
3.602633666992187500e+01 -8.301333189010620117e-01 8.294820404052734375e+01
3.568522262573242188e+01 -1.115553569793701172e+01 8.054164886474609375e+01
3.600527572631835938e+01 -1.254155731201171875e+01 7.952620697021484375e+01
3.642545318603515625e+01 -3.263187646865844727e+00 8.257929992675781250e+01
3.576765823364257812e+01 -1.581210422515869141e+01 8.031178283691406250e+01
3.667488479614257812e+01 -2.038287401199340820e+00 8.206671142578125000e+01
3.638483810424804688e+01 -6.395148277282714844e+00 8.188153839111328125e+01
3.671078109741210938e+01 -5.786148548126220703e+00 8.105038452148437500e+01
3.639773559570312500e+01 -1.279398345947265625e+01 8.066183471679687500e+01
3.649734497070312500e+01 -1.132816886901855469e+01 8.145905303955078125e+01
3.640256881713867188e+01 -1.873242759704589844e+01 7.900998687744140625e+01
3.640256881713867188e+01 -1.873242759704589844e+01 7.900998687744140625e+01
3.679677963256835938e+01 -1.073035240173339844e+01 8.234468841552734375e+01
3.679677963256835938e+01 -1.073035240173339844e+01 8.234468841552734375e+01
3.751244735717773438e+01 -7.652762889862060547e+00 7.918785858154296875e+01
3.709898376464843750e+01 -1.184383869171142578e+01 8.065755462646484375e+01
3.737960433959960938e+01 -1.667952156066894531e+01 7.546807861328125000e+01
3.737960433959960938e+01 -1.667952156066894531e+01 7.546807861328125000e+01
3.795489501953125000e+01 -1.276331067085266113e+00 8.112689971923828125e+01
3.781397628784179688e+01 -4.882047653198242188e+00 8.146260833740234375e+01
3.736298370361328125e+01 -1.802842521667480469e+01 7.694314575195312500e+01
3.739682769775390625e+01 8.985233306884765625e-01 8.951290130615234375e+01
3.842812347412109375e+01 1.407884120941162109e+00 8.301654052734375000e+01
3.795668029785156250e+01 -1.029163169860839844e+01 7.911328887939453125e+01
3.819847106933593750e+01 -4.518214702606201172e+00 8.216969299316406250e+01
3.807198333740234375e+01 -9.739943504333496094e+00 8.039672088623046875e+01
3.854166030883789062e+01 -9.922713279724121094e+00 7.969390106201171875e+01
3.889819717407226562e+01 -4.880845546722412109e+00 8.184323883056640625e+01
3.923192596435546875e+01 -4.224968433380126953e+00 7.955872344970703125e+01
3.923192596435546875e+01 -4.224968433380126953e+00 7.955872344970703125e+01
3.923376464843750000e+01 -8.954612731933593750e+00 7.741711425781250000e+01
3.923376464843750000e+01 -8.954612731933593750e+00 7.741711425781250000e+01
3.886443710327148438e+01 -1.273884582519531250e+01 8.038821411132812500e+01
3.944668960571289062e+01 -8.288911819458007812e+00 7.913151550292968750e+01
3.944372558593750000e+01 -7.214076042175292969e+00 8.027014923095703125e+01
3.968799209594726562e+01 -4.777226924896240234e+00 8.083454132080078125e+01
3.928715133666992188e+01 -1.316004085540771484e+01 7.840654754638671875e+01
3.962773513793945312e+01 -1.031649875640869141e+01 7.810021972656250000e+01
3.962773513793945312e+01 -1.031649875640869141e+01 7.810021972656250000e+01
3.949668502807617188e+01 -1.936467170715332031e+01 7.629024505615234375e+01
3.949668502807617188e+01 -1.936467170715332031e+01 7.629024505615234375e+01
3.966930770874023438e+01 -1.791134262084960938e+01 7.686198425292968750e+01
4.027040100097656250e+01 -7.634947776794433594e+00 8.062231445312500000e+01
4.020510864257812500e+01 -1.137745380401611328e+01 7.833631896972656250e+01
4.682540130615234375e+01 -1.290904998779296875e+00 1.454484844207763672e+01
4.109189605712890625e+01 -1.342017936706542969e+01 7.758032226562500000e+01
4.207740783691406250e+01 -1.001090717315673828e+01 7.755288696289062500e+01
4.282840728759765625e+01 -2.847082614898681641e+00 8.114719390869140625e+01
4.267220306396484375e+01 -1.607424855232238770e+00 1.573725414276123047e+01
4.718301773071289062e+01 -1.685453414916992188e+00 1.179449844360351562e+01
4.712391662597656250e+01 -1.623842597007751465e+00 1.188481903076171875e+01
-1.536512298583984375e+02 -4.028784179687500000e+01 2.006791534423828125e+02
-2.503245086669921875e+02 -5.897913742065429688e+01 2.919310607910156250e+02
-2.503245086669921875e+02 -5.897913742065429688e+01 2.919310607910156250e+02
-2.265357818603515625e+02 -6.908459472656250000e+01 2.711836853027343750e+02
-2.037923431396484375e+02 -5.429998779296875000e+01 2.510521697998046875e+02
-2.763425903320312500e+02 -5.380590057373046875e+01 3.266147155761718750e+02
-2.763425903320312500e+02 -5.380590057373046875e+01 3.266147155761718750e+02
-2.351013031005859375e+02 -6.754110717773437500e+01 2.841905822753906250e+02
-2.351013031005859375e+02 -6.754110717773437500e+01 2.841905822753906250e+02
4.813306427001953125e+01 -1.471780538558959961e+00 1.084339332580566406e+01
-2.913503112792968750e+02 -8.420652770996093750e+01 3.421858215332031250e+02
-3.609687500000000000e+02 -8.749491882324218750e+01 4.118306884765625000e+02
4.631571960449218750e+01 -1.494418501853942871e+00 1.245020294189453125e+01
-2.303822784423828125e+02 -2.649118423461914062e+01 2.948860778808593750e+02
-2.303822784423828125e+02 -2.649118423461914062e+01 2.948860778808593750e+02
4.743944168090820312e+01 -1.390199661254882812e+00 1.168389606475830078e+01
-7.454184082031250000e+03 -6.731800537109375000e+02 7.674158691406250000e+03
4.308351135253906250e+01 -2.234977245330810547e+00 1.616335105895996094e+01
4.308351135253906250e+01 -2.234977245330810547e+00 1.616335105895996094e+01
-2.559748840332031250e+02 -4.910056686401367188e+01 3.236229248046875000e+02
-5.521989746093750000e+02 -1.350516967773437500e+02 6.254165039062500000e+02
-2.771414794921875000e+02 -7.928705596923828125e+01 3.507417297363281250e+02
-3.809745788574218750e+02 -9.807157897949218750e+01 4.655741882324218750e+02
-2.085092010498046875e+02 -4.179316711425781250e+01 2.882994995117187500e+02
-1.155265045166015625e+02 -4.288061523437500000e+01 1.857722167968750000e+02
-2.163975677490234375e+02 -4.914186859130859375e+01 2.989817199707031250e+02
-1.961690673828125000e+02 -4.072634887695312500e+01 2.839233398437500000e+02
-1.961690673828125000e+02 -4.072634887695312500e+01 2.839233398437500000e+02
-4.212073669433593750e+02 -8.318170166015625000e+01 5.491779174804687500e+02
-9.367914428710937500e+02 -1.840228729248046875e+02 1.151133789062500000e+03
-4.189257812500000000e+02 -8.790779113769531250e+01 5.529081420898437500e+02
-4.189257812500000000e+02 -8.790779113769531250e+01 5.529081420898437500e+02
-9.040720367431640625e+01 -2.573511505126953125e+01 1.744481048583984375e+02
-1.436296081542968750e+02 2.020555138587951660e-01 2.451325683593750000e+02
-1.417918395996093750e+02 -2.786141395568847656e+00 2.429683837890625000e+02
-1.417918395996093750e+02 -2.786141395568847656e+00 2.429683837890625000e+02
-1.417918395996093750e+02 -2.786141395568847656e+00 2.429683837890625000e+02
-1.000705490112304688e+02 -2.116253662109375000e+01 1.900559539794921875e+02
-1.562314910888671875e+02 -2.723776817321777344e+01 2.586946105957031250e+02
-3.678265686035156250e+02 1.092981872558593750e+02 5.411271362304687500e+02
5.663556289672851562e+01 9.819439798593521118e-02 5.647791028022766113e-01
-2.729443054199218750e+02 8.771489715576171875e+01 4.264848022460937500e+02
-1.394904632568359375e+02 -3.264350891113281250e+01 2.443782653808593750e+02
-1.338432312011718750e+02 -1.659531402587890625e+01 2.423640594482421875e+02
-1.271645736694335938e+02 -1.574100112915039062e+01 2.359023895263671875e+02
-1.271645736694335938e+02 -1.574100112915039062e+01 2.359023895263671875e+02
-1.271645736694335938e+02 -1.574100112915039062e+01 2.359023895263671875e+02
-1.320255279541015625e+02 -3.844591617584228516e+00 2.446972656250000000e+02
-1.320255279541015625e+02 -3.844591617584228516e+00 2.446972656250000000e+02
-1.390688323974609375e+02 -2.512110137939453125e+01 2.512136840820312500e+02
-1.717057952880859375e+02 2.197133064270019531e+01 3.011271362304687500e+02
5.221394729614257812e+01 -7.251334786415100098e-01 5.636928558349609375e+00
4.820936965942382812e+01 -1.407559156417846680e+00 1.078157329559326172e+01
-4.725762634277343750e+02 3.408625411987304688e+01 7.147556762695312500e+02
-4.796447372436523438e+01 -1.351022148132324219e+01 1.405462799072265625e+02
-1.124232940673828125e+02 -2.155956268310546875e+01 2.278309936523437500e+02
4.795955657958984375e+01 -1.336554527282714844e+00 1.084932518005371094e+01
4.011884689331054688e+01 -2.009756326675415039e+00 2.165296173095703125e+01
-1.512168426513671875e+02 -4.652730560302734375e+01 2.819492797851562500e+02
-3.215955810546875000e+02 -8.491207122802734375e+01 5.139189453125000000e+02
-7.384845733642578125e+01 1.286129474639892578e+01 1.851749267578125000e+02
-1.020639114379882812e+02 9.972532272338867188e+00 2.246157531738281250e+02
-5.981621551513671875e+01 7.856457233428955078e+00 1.664677886962890625e+02
-1.412863922119140625e+02 -2.715755081176757812e+01 2.802191162109375000e+02
-1.022354660034179688e+02 1.082470512390136719e+01 2.311505737304687500e+02
-1.193109512329101562e+02 6.188428401947021484e+00 2.559499053955078125e+02
-4.819984436035156250e+01 -8.980751991271972656e+00 1.532697448730468750e+02
4.653581619262695312e+01 -1.136863231658935547e+00 1.325506591796875000e+01
-1.136465072631835938e+02 -6.311087417602539062e+01 2.466038360595703125e+02
-5.022415771484375000e+02 -1.249156723022460938e+02 8.315620117187500000e+02
-2.739005804061889648e+00 -6.385762214660644531e+00 8.873003387451171875e+01
-2.235782623291015625e+01 -8.051692962646484375e+00 1.193810348510742188e+02
1.061495971679687500e+01 2.370468378067016602e+00 7.083143615722656250e+01
-1.035830230712890625e+02 -3.769419479370117188e+01 2.455380554199218750e+02
4.873541259765625000e+01 -1.632625579833984375e+00 9.689436912536621094e+00
-1.409041290283203125e+02 -7.179206848144531250e+01 3.286916809082031250e+02
5.304445266723632812e+01 -6.783644556999206543e-01 2.043073892593383789e+00
4.821755981445312500e+01 -1.369051575660705566e+00 1.063177108764648438e+01
5.201813125610351562e+01 -1.391693711280822754e+00 3.281786918640136719e+00
-9.451791381835937500e+01 -7.415785217285156250e+01 2.721036682128906250e+02
4.926670074462890625e+01 -1.373403787612915039e+00 8.464562416076660156e+00
5.159355163574218750e+01 -1.738624930381774902e+00 3.720180988311767578e+00
5.209488296508789062e+01 -4.865573346614837646e-01 2.923882007598876953e+00
5.176005554199218750e+01 -1.369451165199279785e+00 3.391109466552734375e+00
5.205972671508789062e+01 -1.303219944238662720e-01 2.917589426040649414e+00
4.757979583740234375e+01 -1.366934299468994141e+00 1.170666027069091797e+01
5.139818191528320312e+01 -1.932679533958435059e+00 3.676454305648803711e+00
5.119186019897460938e+01 -6.094619035720825195e-01 4.413407802581787109e+00
5.213523101806640625e+01 2.400852888822555542e-01 2.428792715072631836e+00
5.213523101806640625e+01 2.400852888822555542e-01 2.428792715072631836e+00
5.226823806762695312e+01 2.917248904705047607e-01 2.137507438659667969e+00
5.245291900634765625e+01 3.606383502483367920e-01 1.734404444694519043e+00
5.238526916503906250e+01 1.566090285778045654e-01 1.756878018379211426e+00
5.054920196533203125e+01 -4.612297713756561279e-01 5.522713661193847656e+00
4.997347259521484375e+01 -1.135221242904663086e+00 6.599502563476562500e+00
4.984309005737304688e+01 -9.171987771987915039e-01 6.769070625305175781e+00
4.807781219482421875e+01 -1.317792892456054688e+00 1.056550598144531250e+01
4.918585586547851562e+01 -1.474729418754577637e+00 8.080763816833496094e+00
4.918585586547851562e+01 -1.474729418754577637e+00 8.080763816833496094e+00
4.918585586547851562e+01 -1.474729418754577637e+00 8.080763816833496094e+00
4.929456710815429688e+01 -1.028483271598815918e+00 7.894991397857666016e+00
4.847237014770507812e+01 -1.426366448402404785e+00 9.696383476257324219e+00
-2.088239479064941406e+01 -4.981472015380859375e+01 1.824351501464843750e+02
4.782283020019531250e+01 -1.367929100990295410e+00 1.143571758270263672e+01
4.866949844360351562e+01 -1.795817971229553223e+00 8.740188598632812500e+00
4.908018875122070312e+01 -1.447136282920837402e+00 7.444598197937011719e+00
4.593831253051757812e+01 -1.119622349739074707e+00 1.857881355285644531e+01
4.586794662475585938e+01 -1.250760555267333984e+00 1.915428161621093750e+01
4.219732666015625000e+01 8.094993978738784790e-02 3.430900192260742188e+01
4.219732666015625000e+01 8.094993978738784790e-02 3.430900192260742188e+01
-9.567251586914062500e+01 -1.230199050903320312e+02 5.448945312500000000e+02
4.801729583740234375e+01 -1.478749155998229980e+00 1.104675674438476562e+01
4.801729583740234375e+01 -1.478749155998229980e+00 1.104675674438476562e+01
4.553414916992187500e+01 -2.310442447662353516e+00 2.078312492370605469e+01
2.627176284790039062e+01 -1.453345489501953125e+01 9.834442901611328125e+01
4.551550292968750000e+01 -1.115352630615234375e+00 2.160603141784667969e+01
-4.438562011718750000e+01 -8.066101837158203125e+01 3.831741027832031250e+02
4.541141128540039062e+01 -1.216459155082702637e+00 2.222934913635253906e+01
4.514950561523437500e+01 -3.165645122528076172e+00 2.266277694702148438e+01
-3.919709777832031250e+01 -7.454039001464843750e+01 3.678186645507812500e+02
4.511481475830078125e+01 -3.102770090103149414e+00 2.330386543273925781e+01
4.532012557983398438e+01 -1.451769828796386719e+00 2.294279289245605469e+01
4.341870117187500000e+01 -7.374367713928222656e-01 3.319827270507812500e+01
-1.009267730712890625e+02 -1.736817321777343750e+02 6.689252929687500000e+02
-1.009267730712890625e+02 -1.736817321777343750e+02 6.689252929687500000e+02
4.446209716796875000e+01 -3.273740053176879883e+00 2.755530548095703125e+01
-1.023275146484375000e+02 -1.854576416015625000e+02 6.922936401367187500e+02
-1.023275146484375000e+02 -1.854576416015625000e+02 6.922936401367187500e+02
4.293991851806640625e+01 -3.789858579635620117e+00 3.544377899169921875e+01
-9.337896728515625000e+01 -1.690856323242187500e+02 6.807186279296875000e+02
4.349724197387695312e+01 -1.839510321617126465e+00 3.425574111938476562e+01
4.327329254150390625e+01 -1.825150489807128906e+00 3.558826446533203125e+01
-1.880688323974609375e+02 -3.044104003906250000e+02 1.142438354492187500e+03
-1.247929992675781250e+02 -1.700197448730468750e+02 8.752437744140625000e+02
4.259285354614257812e+01 -3.913753747940063477e+00 3.893180465698242188e+01
-5.966436386108398438e+01 -1.211737823486328125e+02 5.449208374023437500e+02
-1.564923400878906250e+02 -2.144687805175781250e+02 1.042835449218750000e+03
-1.534134979248046875e+02 -1.714878234863281250e+02 1.068556152343750000e+03
1.009387111663818359e+01 -1.613848876953125000e+01 2.177070465087890625e+02
1.009387111663818359e+01 -1.613848876953125000e+01 2.177070465087890625e+02
-7.943335723876953125e+01 -1.388690032958984375e+02 6.830587158203125000e+02
4.889268112182617188e+01 -1.529548525810241699e+00 5.450420379638671875e+00
-1.143561325073242188e+02 -1.321829681396484375e+02 9.317860107421875000e+02
-1.337653045654296875e+02 -1.462279815673828125e+02 1.057724243164062500e+03
-1.718513336181640625e+02 -2.087102355957031250e+02 1.273104614257812500e+03
4.486867141723632812e+01 8.114147782325744629e-01 3.167477035522460938e+01
-8.011946868896484375e+01 -1.542716064453125000e+02 7.399991455078125000e+02
-1.852090942382812500e+03 -8.426303100585937500e+02 1.166949609375000000e+04
-2.748421936035156250e+02 -2.509187927246093750e+02 1.989292846679687500e+03
-9.681316375732421875e+01 -1.456698608398437500e+02 8.848532714843750000e+02
-9.792250061035156250e+01 -1.295356597900390625e+02 9.094086303710937500e+02
-1.222034835815429688e+02 -2.077392883300781250e+02 1.046464233398437500e+03
-6.872837066650390625e+01 -7.259365081787109375e+01 7.742168579101562500e+02
-1.638440246582031250e+02 -1.812346191406250000e+02 1.367746948242187500e+03
-1.638440246582031250e+02 -1.812346191406250000e+02 1.367746948242187500e+03
-8.593915557861328125e+01 -1.416075592041015625e+02 8.573699340820312500e+02
-9.569057464599609375e+01 -2.286155548095703125e+02 9.062293701171875000e+02
-3.332581176757812500e+02 -3.285188293457031250e+02 2.691896240234375000e+03
-1.007480773925781250e+02 -1.382940368652343750e+02 1.098851928710937500e+03
-4.052556991577148438e+01 -3.138163757324218750e+01 7.071690673828125000e+02
-1.517651519775390625e+02 -2.536830139160156250e+02 1.538141113281250000e+03
-8.597809791564941406e+00 -1.045008316040039062e+02 4.265416870117187500e+02
-3.502451477050781250e+02 -5.486649169921875000e+02 3.114474365234375000e+03
-5.258120727539062500e+02 -6.264963989257812500e+02 4.647809570312500000e+03
-5.258120727539062500e+02 -6.264963989257812500e+02 4.647809570312500000e+03
-1.106076126098632812e+02 -3.411270141601562500e+02 1.237351318359375000e+03
-1.106076126098632812e+02 -3.411270141601562500e+02 1.237351318359375000e+03
4.721464157104492188e+01 -1.177249431610107422e+00 1.811736106872558594e+01
-4.714381027221679688e+01 -1.926484375000000000e+02 7.685449218750000000e+02
-1.271268920898437500e+03 -1.724574951171875000e+03 1.149563867187500000e+04
-1.550310821533203125e+02 -3.283828430175781250e+02 1.807511230468750000e+03
-6.170987548828125000e+02 -1.048516723632812500e+03 6.469033691406250000e+03
-3.574611206054687500e+02 -7.214074707031250000e+02 3.957190917968750000e+03
5.783717346191406250e+01 -1.132158041000366211e+00 1.803463101387023926e+00
-1.708317947387695312e+01 -1.052075195312500000e+01 6.891741180419921875e+01
-7.416448593139648438e+00 -1.131863498687744141e+01 6.009721374511718750e+01
5.265095901489257812e+01 -8.248994946479797363e-01 6.219302177429199219e+00
5.432507991790771484e+00 1.454150485992431641e+01 5.202573013305664062e+01
1.915711212158203125e+01 -3.105541706085205078e+00 3.783876037597656250e+01
-2.018621444702148438e+01 -1.463327598571777344e+01 7.471942138671875000e+01
-2.018621444702148438e+01 -1.463327598571777344e+01 7.471942138671875000e+01
-2.043776512145996094e+01 -1.835998153686523438e+01 7.537503051757812500e+01
-1.588016796112060547e+01 -1.177945327758789062e+01 7.267612457275390625e+01
-1.588016796112060547e+01 -1.177945327758789062e+01 7.267612457275390625e+01
-2.148283958435058594e+01 -1.772501182556152344e+01 7.757076263427734375e+01
-2.148283958435058594e+01 -1.772501182556152344e+01 7.757076263427734375e+01
-2.477289199829101562e+01 -1.258550071716308594e+01 8.156153869628906250e+01
-2.454647254943847656e+01 -1.918144989013671875e+01 8.129456329345703125e+01
-1.633368301391601562e+01 -1.504229927062988281e+01 7.354322052001953125e+01
-1.113683986663818359e+01 4.602326393127441406e+00 7.121149444580078125e+01
-1.485014915466308594e+01 -7.111079692840576172e+00 7.464436340332031250e+01
-1.324318981170654297e+01 -6.955226898193359375e+00 7.302343750000000000e+01
-1.324318981170654297e+01 -6.955226898193359375e+00 7.302343750000000000e+01
1.482171535491943359e+00 -4.168627262115478516e+00 5.832435607910156250e+01
4.855328369140625000e+01 -1.512819528579711914e+00 1.024947261810302734e+01
-3.434677886962890625e+01 -1.437988471984863281e+01 9.524575805664062500e+01
-1.568708133697509766e+01 -1.577483177185058594e+01 7.568013000488281250e+01
-2.022767066955566406e+01 -7.097917079925537109e+00 8.185897064208984375e+01
-2.022767066955566406e+01 -7.097917079925537109e+00 8.185897064208984375e+01
-9.742500305175781250e+00 -1.518271350860595703e+01 7.002891540527343750e+01
-1.621392250061035156e+01 -1.690790367126464844e+01 7.763060760498046875e+01
-1.531907749176025391e+01 -1.578360366821289062e+01 7.762041473388671875e+01
-1.933418464660644531e+01 -1.334858798980712891e+01 8.243511199951171875e+01
-1.250043678283691406e+01 -1.134760761260986328e+01 7.533422088623046875e+01
-2.130892944335937500e+01 -1.779728507995605469e+01 8.425757598876953125e+01
-1.513537406921386719e+01 -1.036484241485595703e+01 7.861420440673828125e+01
-1.397671318054199219e+01 -1.528368568420410156e+01 7.680190277099609375e+01
-1.978424835205078125e+01 -1.212350845336914062e+01 8.384708404541015625e+01
-2.254821777343750000e+01 -1.931565093994140625e+01 8.600141906738281250e+01
-1.971646499633789062e+01 -1.374401855468750000e+01 8.432434082031250000e+01
-2.217192268371582031e+01 -1.280603504180908203e+01 8.898812103271484375e+01
-2.217192268371582031e+01 -1.280603504180908203e+01 8.898812103271484375e+01
3.214841079711914062e+01 2.167826175689697266e+00 2.916624641418457031e+01
-4.524517059326171875e+00 -3.363854646682739258e+00 7.142288970947265625e+01
-4.481198501586914062e+01 -1.201781749725341797e+01 1.207539520263671875e+02
-2.006999206542968750e+01 -9.186337471008300781e+00 9.159851837158203125e+01
-1.896015930175781250e+01 -1.036407184600830078e+01 9.165081787109375000e+01
-1.719581413269042969e+01 -9.702011108398437500e+00 8.968875885009765625e+01
-3.215735626220703125e+01 -2.073948478698730469e+01 1.068202590942382812e+02
-1.367748260498046875e+01 1.010472106933593750e+01 8.859879302978515625e+01
-1.367748260498046875e+01 1.010472106933593750e+01 8.859879302978515625e+01
-1.816382026672363281e+01 1.713565826416015625e+01 9.630918884277343750e+01
4.646341323852539062e+01 -1.885196805000305176e+00 1.250693893432617188e+01
-1.726268196105957031e+01 -6.766570568084716797e+00 9.445703887939453125e+01
-1.726268196105957031e+01 -6.766570568084716797e+00 9.445703887939453125e+01
-1.726268196105957031e+01 -6.766570568084716797e+00 9.445703887939453125e+01
-1.557191848754882812e+01 5.410548686981201172e+00 9.461284637451171875e+01
-1.557191848754882812e+01 5.410548686981201172e+00 9.461284637451171875e+01
-2.041696739196777344e+01 -1.334113693237304688e+01 1.016021575927734375e+02
-3.611031341552734375e+01 1.680472564697265625e+01 1.279781799316406250e+02
4.909461212158203125e+01 -1.477655172348022461e+00 9.545996665954589844e+00
-1.844577407836914062e+01 -7.849212646484375000e+00 1.009863052368164062e+02
-1.730920982360839844e+01 -1.628583908081054688e+01 9.947137451171875000e+01
-1.637572097778320312e+01 3.526262283325195312e+00 1.023638000488281250e+02
-1.479623508453369141e+01 6.015125751495361328e+00 1.005282516479492188e+02
-1.298765277862548828e+01 3.872367620468139648e+00 9.873358154296875000e+01
6.664472579956054688e+00 1.411364555358886719e+01 7.224984741210937500e+01
-1.666996192932128906e+01 3.895215034484863281e+00 1.054943389892578125e+02
-1.687371444702148438e+01 1.559574484825134277e+00 1.056899490356445312e+02
-1.262065124511718750e+01 -1.094441795349121094e+01 9.752863311767578125e+01
-1.835072708129882812e+01 -1.557528686523437500e+01 1.053864517211914062e+02
-1.623526573181152344e+01 9.710821151733398438e+00 1.075688247680664062e+02
4.797040939331054688e+01 -1.623734474182128906e+00 1.093601608276367188e+01
-1.496417045593261719e+01 -1.213505935668945312e+01 1.024305801391601562e+02
-2.937608528137207031e+01 -7.470851421356201172e+00 1.252956848144531250e+02
4.868892669677734375e+01 -1.493090748786926270e+00 1.012019920349121094e+01
-2.565268516540527344e+01 -2.964970970153808594e+01 1.180021667480468750e+02
3.495726394653320312e+01 -4.449704170227050781e+00 3.004087448120117188e+01
4.447996139526367188e+01 -2.295153617858886719e+00 1.640901947021484375e+01
-1.266573181152343750e+02 -1.843817138671875000e+01 2.797269287109375000e+02
-3.493037414550781250e+01 7.150785923004150391e+00 1.441639251708984375e+02
4.424311161041259766e+00 -1.065971183776855469e+01 8.010420227050781250e+01
3.070404815673828125e+01 1.817347526550292969e+00 4.093534088134765625e+01
3.005486869812011719e+01 -1.282683730125427246e+00 4.166272354125976562e+01
3.482140731811523438e+01 -1.103016853332519531e+00 3.469961547851562500e+01
3.500706100463867188e+01 -1.190880984067916870e-01 3.602439117431640625e+01
3.431969070434570312e+01 -4.516177177429199219e+00 3.673928833007812500e+01
4.890522384643554688e+01 -1.516885995864868164e+00 9.680829048156738281e+00
3.371537017822265625e+01 -5.972128391265869141e+00 3.820731353759765625e+01
4.663206481933593750e+01 -6.290793418884277344e-01 1.366709804534912109e+01
4.663206481933593750e+01 -6.290793418884277344e-01 1.366709804534912109e+01
3.640554046630859375e+01 -4.144758224487304688e+00 3.370054626464843750e+01
3.331849670410156250e+01 -7.366773128509521484e+00 4.001635742187500000e+01
3.668191909790039062e+01 -4.282175540924072266e+00 3.369965362548828125e+01
3.496913528442382812e+01 -6.735964298248291016e+00 3.688429641723632812e+01
3.591252136230468750e+01 -5.646938800811767578e+00 3.526354980468750000e+01
-1.030342102050781250e+01 -3.502526855468750000e+01 1.265048904418945312e+02
-1.030342102050781250e+01 -3.502526855468750000e+01 1.265048904418945312e+02
3.720681381225585938e+01 -4.282682418823242188e+00 3.310680389404296875e+01
3.528258895874023438e+01 -6.227971076965332031e+00 3.699822235107421875e+01
3.528258895874023438e+01 -6.227971076965332031e+00 3.699822235107421875e+01
3.793827056884765625e+01 -2.538134574890136719e+00 3.284078216552734375e+01
3.797197341918945312e+01 -5.995751023292541504e-01 3.407330322265625000e+01
3.797197341918945312e+01 -5.995751023292541504e-01 3.407330322265625000e+01
-2.058971405029296875e+01 -4.046113204956054688e+01 1.649299774169921875e+02
3.823685073852539062e+01 -3.598724007606506348e-01 3.549646759033203125e+01
3.837419891357421875e+01 -5.944107174873352051e-01 3.517740249633789062e+01
3.885201263427734375e+01 -7.978861331939697266e-01 3.593101119995117188e+01
4.379457092285156250e+01 -2.271152496337890625e+00 2.323782157897949219e+01
7.932875156402587891e-01 -3.540039825439453125e+01 1.464916229248046875e+02
7.932875156402587891e-01 -3.540039825439453125e+01 1.464916229248046875e+02
-6.312376022338867188e+00 -4.010793685913085938e+01 1.686372680664062500e+02
3.916067123413085938e+01 -8.794693946838378906e-01 4.111499786376953125e+01
4.825122833251953125e+01 -1.522231578826904297e+00 1.118740749359130859e+01
3.886037445068359375e+01 -8.654621243476867676e-01 4.517003250122070312e+01
3.904067993164062500e+01 -5.023622512817382812e-01 4.508041381835937500e+01
3.362290573120117188e+01 2.265245676040649414e+00 6.829407501220703125e+01
3.362290573120117188e+01 2.265245676040649414e+00 6.829407501220703125e+01
1.004816913604736328e+01 -3.379099655151367188e+01 1.522354278564453125e+02
4.725787353515625000e+01 -1.325342655181884766e+00 1.437227535247802734e+01
3.930492401123046875e+01 -8.470714688301086426e-01 4.781644058227539062e+01
3.494306182861328125e+01 -9.457516670227050781e+00 6.325829315185546875e+01
3.631063461303710938e+01 -8.400138854980468750e+00 5.995858383178710938e+01
1.494559097290039062e+01 -2.933307266235351562e+01 1.464267578125000000e+02
3.917076110839843750e+01 -8.622013330459594727e-01 5.121461105346679688e+01
2.782954597473144531e+01 7.616029262542724609e+00 1.110791702270507812e+02
3.926612091064453125e+01 -6.058569908142089844e+00 5.096141815185546875e+01
3.559444808959960938e+01 6.270925998687744141e+00 7.545173645019531250e+01
3.873911285400390625e+01 -5.800660610198974609e+00 5.499769210815429688e+01
1.531742763519287109e+01 -3.955246353149414062e+01 1.557428283691406250e+02
1.531742763519287109e+01 -3.955246353149414062e+01 1.557428283691406250e+02
3.925980758666992188e+01 -2.342186450958251953e+00 5.542801284790039062e+01
1.566495323181152344e+01 -4.133935546875000000e+01 1.578929595947265625e+02
1.566495323181152344e+01 -4.133935546875000000e+01 1.578929595947265625e+02
3.946312713623046875e+01 -2.260811805725097656e+00 5.476911544799804688e+01
3.794984436035156250e+01 -6.092209815979003906e+00 6.205409622192382812e+01
1.735561561584472656e+01 -3.809668731689453125e+01 1.565868530273437500e+02
2.033876037597656250e+01 2.491182804107666016e+00 1.618333282470703125e+02
1.683897018432617188e+01 -4.179805755615234375e+01 1.607883453369140625e+02
1.765856742858886719e+01 -3.133160972595214844e+01 1.632925415039062500e+02
