-8.677916526794433594e+00 -8.778743743896484375e+00 2.091359901428222656e+01
-8.705127716064453125e+00 -8.411320686340332031e+00 2.110827827453613281e+01
-8.617551803588867188e+00 -8.607332229614257812e+00 2.098868751525878906e+01
-8.543397903442382812e+00 -8.650383949279785156e+00 2.108145904541015625e+01
-8.622775077819824219e+00 -8.229819297790527344e+00 2.125484848022460938e+01
-8.423281669616699219e+00 -9.317724227905273438e+00 2.089047813415527344e+01
-8.423281669616699219e+00 -9.317724227905273438e+00 2.089047813415527344e+01
-8.393277168273925781e+00 -9.104903221130371094e+00 2.095595550537109375e+01
-8.831750869750976562e+00 -5.602578639984130859e+00 2.195993804931640625e+01
-8.331457138061523438e+00 -9.250659942626953125e+00 2.099669837951660156e+01
-8.369626998901367188e+00 -8.997702598571777344e+00 2.109657096862792969e+01
-8.350702285766601562e+00 -8.483632087707519531e+00 2.112053298950195312e+01
-8.389827728271484375e+00 -8.828351020812988281e+00 2.115999412536621094e+01
-8.772676467895507812e+00 -5.663492679595947266e+00 2.203857040405273438e+01
-8.375108718872070312e+00 -8.067045211791992188e+00 2.139530563354492188e+01
-8.111453056335449219e+00 -9.438126564025878906e+00 2.094091796875000000e+01
-8.610391616821289062e+00 -5.752485752105712891e+00 2.203134536743164062e+01
-8.208045959472656250e+00 -8.843672752380371094e+00 2.117085456848144531e+01
-8.155161857604980469e+00 -8.907725334167480469e+00 2.113044166564941406e+01
-8.241620063781738281e+00 -8.218002319335937500e+00 2.132681465148925781e+01
-8.241620063781738281e+00 -8.218002319335937500e+00 2.132681465148925781e+01
-8.276885032653808594e+00 -8.603509902954101562e+00 2.135224914550781250e+01
-8.118283271789550781e+00 -9.282677650451660156e+00 2.109105110168457031e+01
-8.234884262084960938e+00 -8.383844375610351562e+00 2.134581375122070312e+01
-8.151237487792968750e+00 -8.731697082519531250e+00 2.126793861389160156e+01
-8.335519790649414062e+00 -5.630927085876464844e+00 2.185477447509765625e+01
-8.103362083435058594e+00 -9.143654823303222656e+00 2.121376037597656250e+01
-8.131529808044433594e+00 -8.975336074829101562e+00 2.127522087097167969e+01
-8.131529808044433594e+00 -8.975336074829101562e+00 2.127522087097167969e+01
-8.075175285339355469e+00 -9.041744232177734375e+00 2.127795028686523438e+01
-7.974119663238525391e+00 -8.701189994812011719e+00 2.121113014221191406e+01
-8.091795921325683594e+00 -5.228983879089355469e+00 2.188697624206542969e+01
-7.889146804809570312e+00 -6.991229057312011719e+00 2.146787452697753906e+01
-7.838683605194091797e+00 -9.372465133666992188e+00 2.118310928344726562e+01
-7.838683605194091797e+00 -9.372465133666992188e+00 2.118310928344726562e+01
-7.985068798065185547e+00 -7.711597442626953125e+00 2.162041854858398438e+01
-7.784365653991699219e+00 -8.727066993713378906e+00 2.143019676208496094e+01
-7.784365653991699219e+00 -8.727066993713378906e+00 2.143019676208496094e+01
-7.776864051818847656e+00 -8.967307090759277344e+00 2.140121841430664062e+01
-7.776864051818847656e+00 -8.967307090759277344e+00 2.140121841430664062e+01
-7.958704471588134766e+00 -7.461394786834716797e+00 2.182631301879882812e+01
-7.740557193756103516e+00 -8.866631507873535156e+00 2.136899566650390625e+01
-7.742017745971679688e+00 -8.847549438476562500e+00 2.141718864440917969e+01
-7.742017745971679688e+00 -8.847549438476562500e+00 2.141718864440917969e+01
-7.622972488403320312e+00 -9.395022392272949219e+00 2.120088577270507812e+01
-7.771566867828369141e+00 -8.682941436767578125e+00 2.153610229492187500e+01
-7.771566867828369141e+00 -8.682941436767578125e+00 2.153610229492187500e+01
-7.479516029357910156e+00 -5.578290939331054688e+00 2.137944030761718750e+01
-7.397721290588378906e+00 -6.094335079193115234e+00 2.124150657653808594e+01
-7.632625102996826172e+00 -9.375952720642089844e+00 2.139724540710449219e+01
-7.632625102996826172e+00 -9.375952720642089844e+00 2.139724540710449219e+01
-7.626550197601318359e+00 -8.877497673034667969e+00 2.150916481018066406e+01
-7.626550197601318359e+00 -8.877497673034667969e+00 2.150916481018066406e+01
-7.644262790679931641e+00 -8.507198333740234375e+00 2.158283233642578125e+01
-7.644262790679931641e+00 -8.507198333740234375e+00 2.158283233642578125e+01
-7.546075344085693359e+00 -9.022948265075683594e+00 2.147238159179687500e+01
-7.565015316009521484e+00 -8.178606033325195312e+00 2.162981414794921875e+01
-7.565015316009521484e+00 -8.178606033325195312e+00 2.162981414794921875e+01
-7.203257083892822266e+00 -5.781855583190917969e+00 2.128376579284667969e+01
-7.517404556274414062e+00 -8.710072517395019531e+00 2.158899116516113281e+01
-7.517404556274414062e+00 -8.710072517395019531e+00 2.158899116516113281e+01
-7.020658493041992188e+00 -5.504300594329833984e+00 2.111717605590820312e+01
-7.542881965637207031e+00 -8.090958595275878906e+00 2.173571205139160156e+01
-7.542881965637207031e+00 -8.090958595275878906e+00 2.173571205139160156e+01
-7.411085128784179688e+00 -8.789146423339843750e+00 2.151255798339843750e+01
-7.411085128784179688e+00 -8.789146423339843750e+00 2.151255798339843750e+01
-6.894012451171875000e+00 -5.905486106872558594e+00 2.094208335876464844e+01
-7.614083766937255859e+00 -8.163214683532714844e+00 2.190774345397949219e+01
-6.897647857666015625e+00 -6.130257129669189453e+00 2.094177436828613281e+01
-7.396966457366943359e+00 -8.880205154418945312e+00 2.150323295593261719e+01
-7.396966457366943359e+00 -8.880205154418945312e+00 2.150323295593261719e+01
-7.218997001647949219e+00 -7.688518524169921875e+00 2.135173225402832031e+01
-7.374746322631835938e+00 -9.548876762390136719e+00 2.146699142456054688e+01
-7.381402015686035156e+00 -9.042945861816406250e+00 2.156330871582031250e+01
-7.580518722534179688e+00 -7.771614074707031250e+00 2.200092124938964844e+01
-7.313230991363525391e+00 -9.423008918762207031e+00 2.144230461120605469e+01
-7.313230991363525391e+00 -9.423008918762207031e+00 2.144230461120605469e+01
-6.573866844177246094e+00 -5.783408641815185547e+00 2.065035247802734375e+01
-7.328752040863037109e+00 -8.549756050109863281e+00 2.164884567260742188e+01
-7.429850578308105469e+00 -7.904656887054443359e+00 2.190180587768554688e+01
-7.422498703002929688e+00 -8.275745391845703125e+00 2.186287498474121094e+01
-7.396710872650146484e+00 -7.529345035552978516e+00 2.196687126159667969e+01
-7.223860740661621094e+00 -8.944028854370117188e+00 2.163470840454101562e+01
-7.172887802124023438e+00 -9.476336479187011719e+00 2.153680038452148438e+01
-7.408015727996826172e+00 -7.021347045898437500e+00 2.216931152343750000e+01
-6.973007678985595703e+00 -9.452291488647460938e+00 2.124297523498535156e+01
-7.132400512695312500e+00 -9.090421676635742188e+00 2.155004501342773438e+01
-7.212159633636474609e+00 -8.602647781372070312e+00 2.173288345336914062e+01
-7.405414104461669922e+00 -6.898785591125488281e+00 2.221717071533203125e+01
-7.173768043518066406e+00 -8.874375343322753906e+00 2.165161132812500000e+01
-7.169476509094238281e+00 -8.698615074157714844e+00 2.170162391662597656e+01
-7.169476509094238281e+00 -8.698615074157714844e+00 2.170162391662597656e+01
-7.162938117980957031e+00 -7.889640331268310547e+00 2.180910491943359375e+01
-6.703632831573486328e+00 -6.309971332550048828e+00 2.125626182556152344e+01
-7.243772506713867188e+00 -7.562113285064697266e+00 2.205061149597167969e+01
-7.243772506713867188e+00 -7.562113285064697266e+00 2.205061149597167969e+01
-7.153039455413818359e+00 -7.699486732482910156e+00 2.189416694641113281e+01
-7.108554840087890625e+00 -8.609019279479980469e+00 2.174286842346191406e+01
-7.030543804168701172e+00 -9.318264007568359375e+00 2.163701057434082031e+01
-7.123354434967041016e+00 -8.313268661499023438e+00 2.192223930358886719e+01
-7.039330959320068359e+00 -8.803833007812500000e+00 2.174595260620117188e+01
-7.039330959320068359e+00 -8.803833007812500000e+00 2.174595260620117188e+01
-7.013605117797851562e+00 -9.654712677001953125e+00 2.163399887084960938e+01
-7.013605117797851562e+00 -9.654712677001953125e+00 2.163399887084960938e+01
-6.764204025268554688e+00 -6.068114757537841797e+00 2.158878326416015625e+01
-7.352115631103515625e+00 -7.146722316741943359e+00 2.247875404357910156e+01
-6.875404357910156250e+00 -9.486949920654296875e+00 2.150470733642578125e+01
-6.923445701599121094e+00 -9.229435920715332031e+00 2.165467071533203125e+01
-6.923445701599121094e+00 -9.229435920715332031e+00 2.165467071533203125e+01
-6.970777988433837891e+00 -8.389697074890136719e+00 2.181632995605468750e+01
-6.792250633239746094e+00 -9.616744041442871094e+00 2.152627372741699219e+01
-6.820171833038330078e+00 -9.306344985961914062e+00 2.160618782043457031e+01
-6.820171833038330078e+00 -9.306344985961914062e+00 2.160618782043457031e+01
-7.155266284942626953e+00 -6.658297061920166016e+00 2.243513488769531250e+01
-6.998039722442626953e+00 -7.600115776062011719e+00 2.214668846130371094e+01
-7.083269596099853516e+00 -6.888167381286621094e+00 2.241436576843261719e+01
-7.292146205902099609e+00 -6.322628974914550781e+00 2.286515045166015625e+01
-6.893347740173339844e+00 -8.113148689270019531e+00 2.204018020629882812e+01
-6.816721916198730469e+00 -9.538870811462402344e+00 2.178119087219238281e+01
-7.084208011627197266e+00 -6.461180686950683594e+00 2.254779434204101562e+01
-6.763581275939941406e+00 -9.200280189514160156e+00 2.177016639709472656e+01
-6.704385757446289062e+00 -8.553408622741699219e+00 2.180089950561523438e+01
-6.704385757446289062e+00 -8.553408622741699219e+00 2.180089950561523438e+01
-6.726909637451171875e+00 -9.054784774780273438e+00 2.179798507690429688e+01
-6.697706699371337891e+00 -9.592810630798339844e+00 2.170523071289062500e+01
-6.697706699371337891e+00 -9.592810630798339844e+00 2.170523071289062500e+01
-6.977488994598388672e+00 -6.141965389251708984e+00 2.253387069702148438e+01
-6.793498516082763672e+00 -8.357105255126953125e+00 2.201595115661621094e+01
-6.722524642944335938e+00 -8.758904457092285156e+00 2.186685562133789062e+01
-6.633239746093750000e+00 -9.405485153198242188e+00 2.168482780456542969e+01
-6.735360145568847656e+00 -8.496183395385742188e+00 2.195386505126953125e+01
-6.936594486236572266e+00 -6.446964263916015625e+00 2.249829101562500000e+01
-6.742533206939697266e+00 -8.471884727478027344e+00 2.199606895446777344e+01
-6.898965358734130859e+00 -5.850454330444335938e+00 2.257009315490722656e+01
-6.563690662384033203e+00 -9.691839218139648438e+00 2.162753105163574219e+01
-6.609389305114746094e+00 -9.209760665893554688e+00 2.176301956176757812e+01
-6.987677574157714844e+00 -5.842112541198730469e+00 2.277025222778320312e+01
-7.128514766693115234e+00 -6.155460834503173828e+00 2.300679397583007812e+01
-6.741877079010009766e+00 -7.562281131744384766e+00 2.224191856384277344e+01
-6.835469722747802734e+00 -7.274652957916259766e+00 2.246955490112304688e+01
-6.780497550964355469e+00 -6.809078216552734375e+00 2.241693115234375000e+01
-6.723130226135253906e+00 -6.969372749328613281e+00 2.242695808410644531e+01
-6.741793155670166016e+00 -6.683397293090820312e+00 2.249263763427734375e+01
-6.533656120300292969e+00 -8.483273506164550781e+00 2.208073806762695312e+01
-6.436397075653076172e+00 -9.430381774902343750e+00 2.183336257934570312e+01
-6.377861976623535156e+00 -9.240683555603027344e+00 2.190290451049804688e+01
-6.571228504180908203e+00 -6.952973365783691406e+00 2.248781013488769531e+01
-6.571228504180908203e+00 -6.952973365783691406e+00 2.248781013488769531e+01
-6.322990894317626953e+00 -9.358665466308593750e+00 2.185611343383789062e+01
-6.377473831176757812e+00 -8.411623954772949219e+00 2.209358787536621094e+01
-6.339367389678955078e+00 -8.910396575927734375e+00 2.199047660827636719e+01
-6.486115455627441406e+00 -6.574448585510253906e+00 2.251145172119140625e+01
-6.149313449859619141e+00 -8.989131927490234375e+00 2.180752944946289062e+01
-6.149313449859619141e+00 -8.989131927490234375e+00 2.180752944946289062e+01
-6.153597831726074219e+00 -9.767279624938964844e+00 2.174928665161132812e+01
-6.313805103302001953e+00 -8.689719200134277344e+00 2.216027069091796875e+01
-6.209184169769287109e+00 -8.986484527587890625e+00 2.198532867431640625e+01
-6.378681659698486328e+00 -6.979834556579589844e+00 2.254383468627929688e+01
-6.165036678314208984e+00 -8.331485748291015625e+00 2.210163116455078125e+01
-6.164610385894775391e+00 -8.286560058593750000e+00 2.212651062011718750e+01
-6.122275829315185547e+00 -8.994166374206542969e+00 2.201753425598144531e+01
-6.288810253143310547e+00 -7.794993400573730469e+00 2.249075508117675781e+01
-6.203478813171386719e+00 -7.046550750732421875e+00 2.255606269836425781e+01
-5.891803264617919922e+00 -8.912957191467285156e+00 2.195771217346191406e+01
-6.047296524047851562e+00 -7.932447433471679688e+00 2.238735198974609375e+01
-6.047296524047851562e+00 -7.932447433471679688e+00 2.238735198974609375e+01
-5.819426059722900391e+00 -9.800537109375000000e+00 2.182462120056152344e+01
-5.996363162994384766e+00 -8.079842567443847656e+00 2.236854362487792969e+01
-5.982760429382324219e+00 -7.911173343658447266e+00 2.239301490783691406e+01
-5.982760429382324219e+00 -7.911173343658447266e+00 2.239301490783691406e+01
-7.147646427154541016e+00 -6.973647594451904297e+00 2.469652748107910156e+01
-5.887333869934082031e+00 -8.493118286132812500e+00 2.224781608581542969e+01
-5.785679340362548828e+00 -5.992854118347167969e+00 2.232008743286132812e+01
-5.948062896728515625e+00 -7.750582695007324219e+00 2.245465850830078125e+01
-5.837038993835449219e+00 -6.941973686218261719e+00 2.233894348144531250e+01
-5.963890075683593750e+00 -7.243844985961914062e+00 2.254942512512207031e+01
-5.825424671173095703e+00 -8.293477058410644531e+00 2.230370140075683594e+01
-5.482690811157226562e+00 -8.976024627685546875e+00 2.170582389831542969e+01
-5.723815917968750000e+00 -8.506077766418457031e+00 2.224342155456542969e+01
-6.219882011413574219e+00 -6.799556255340576172e+00 2.337360000610351562e+01
-5.630501747131347656e+00 -8.809261322021484375e+00 2.221534538269042969e+01
-5.630501747131347656e+00 -8.809261322021484375e+00 2.221534538269042969e+01
-5.708126068115234375e+00 -7.322607040405273438e+00 2.253769111633300781e+01
-5.301347732543945312e+00 -8.848498344421386719e+00 2.163192749023437500e+01
-5.654785156250000000e+00 -9.431308746337890625e+00 2.227271270751953125e+01
-5.532989978790283203e+00 -9.421363830566406250e+00 2.208685302734375000e+01
-5.532989978790283203e+00 -9.421363830566406250e+00 2.208685302734375000e+01
-5.969483375549316406e+00 -6.445179939270019531e+00 2.327002525329589844e+01
-5.642513275146484375e+00 -7.044476509094238281e+00 2.264401054382324219e+01
-5.642513275146484375e+00 -7.044476509094238281e+00 2.264401054382324219e+01
-5.799050331115722656e+00 -5.973818778991699219e+00 2.311574745178222656e+01
-5.469983100891113281e+00 -9.849320411682128906e+00 2.206595230102539062e+01
-5.469983100891113281e+00 -9.849320411682128906e+00 2.206595230102539062e+01
-5.636547088623046875e+00 -6.939339637756347656e+00 2.284844970703125000e+01
-5.451730251312255859e+00 -8.312326431274414062e+00 2.241473579406738281e+01
-5.394305706024169922e+00 -8.747003555297851562e+00 2.226428985595703125e+01
-5.409821510314941406e+00 -8.617621421813964844e+00 2.232939147949218750e+01
-5.574059009552001953e+00 -6.601379871368408203e+00 2.290875625610351562e+01
-5.549261093139648438e+00 -5.842312812805175781e+00 2.304536628723144531e+01
-5.348279476165771484e+00 -8.130704879760742188e+00 2.250479125976562500e+01
-5.211640357971191406e+00 -9.016053199768066406e+00 2.228723526000976562e+01
-5.211660385131835938e+00 -9.016737937927246094e+00 2.228754425048828125e+01
-5.308242321014404297e+00 -7.332389831542968750e+00 2.270925521850585938e+01
-5.308242321014404297e+00 -7.332389831542968750e+00 2.270925521850585938e+01
-4.785551548004150391e+00 -6.295292854309082031e+00 2.179078483581542969e+01
-5.180494785308837891e+00 -8.247859954833984375e+00 2.238926315307617188e+01
-5.222832202911376953e+00 -8.306056976318359375e+00 2.247256469726562500e+01
-5.145114421844482422e+00 -8.533558845520019531e+00 2.237741088867187500e+01
-5.016889572143554688e+00 -9.369163513183593750e+00 2.220672035217285156e+01
-5.016889572143554688e+00 -9.369163513183593750e+00 2.220672035217285156e+01
-5.081053256988525391e+00 -7.346732616424560547e+00 2.282171058654785156e+01
-4.875491142272949219e+00 -9.413620948791503906e+00 2.223735618591308594e+01
-4.875491142272949219e+00 -9.413620948791503906e+00 2.223735618591308594e+01
-5.000788688659667969e+00 -7.378861904144287109e+00 2.276586914062500000e+01
-4.573157119750976562e+01 -1.843482398986816406e+01 5.328144454956054688e+01
-7.091217041015625000e+01 -3.174128532409667969e+01 7.951682281494140625e+01
-6.331805801391601562e+01 -2.667033195495605469e+01 7.191770172119140625e+01
-7.916205596923828125e+01 -3.634784317016601562e+01 8.866252136230468750e+01
-7.916205596923828125e+01 -3.634784317016601562e+01 8.866252136230468750e+01
-8.197396087646484375e+01 -3.857112884521484375e+01 9.159140777587890625e+01
-9.449592590332031250e+01 -4.535731124877929688e+01 1.048681106567382812e+02
-1.019297485351562500e+02 -4.977355575561523438e+01 1.132478256225585938e+02
-1.005276641845703125e+02 -4.958023452758789062e+01 1.118277893066406250e+02
-5.338150787353515625e+01 -2.115059661865234375e+01 6.244352722167968750e+01
-5.338150787353515625e+01 -2.115059661865234375e+01 6.244352722167968750e+01
-8.131311035156250000e+01 -3.893946075439453125e+01 9.213021087646484375e+01
-5.848740005493164062e+01 -2.544364356994628906e+01 6.810996246337890625e+01
-5.848740005493164062e+01 -2.544364356994628906e+01 6.810996246337890625e+01
-1.026791839599609375e+02 -5.066890335083007812e+01 1.151113281250000000e+02
-1.026791839599609375e+02 -5.066890335083007812e+01 1.151113281250000000e+02
-8.585036468505859375e+01 -4.046865081787109375e+01 9.742176055908203125e+01
-8.585036468505859375e+01 -4.046865081787109375e+01 9.742176055908203125e+01
-7.033234405517578125e+01 -3.302208709716796875e+01 8.092306518554687500e+01
-5.232523345947265625e+01 -2.177296829223632812e+01 6.198194503784179688e+01
-8.000981903076171875e+01 -3.626744461059570312e+01 9.208671569824218750e+01
-8.000981903076171875e+01 -3.626744461059570312e+01 9.208671569824218750e+01
-6.686884307861328125e+01 -2.995667076110839844e+01 7.800758361816406250e+01
-2.035276336669921875e+02 -9.890645599365234375e+01 2.242765655517578125e+02
-1.098453674316406250e+02 -5.350752639770507812e+01 1.243717880249023438e+02
-9.558659362792968750e+01 -4.620866775512695312e+01 1.091491012573242188e+02
-6.977825164794921875e+01 -2.938659667968750000e+01 8.163211822509765625e+01
-7.261093139648437500e+01 -2.938362884521484375e+01 8.498623657226562500e+01
-9.440821075439453125e+01 -4.657908630371093750e+01 1.086358413696289062e+02
-8.214714813232421875e+01 -3.799029541015625000e+01 9.571754455566406250e+01
-7.502604675292968750e+01 -3.331425857543945312e+01 8.817644500732421875e+01
-9.486225128173828125e+01 -4.723223495483398438e+01 1.097931671142578125e+02
-3.710776138305664062e+01 -1.321818065643310547e+01 4.667430496215820312e+01
-7.412355804443359375e+01 -3.220743179321289062e+01 8.731362152099609375e+01
-8.680306243896484375e+01 -4.164133071899414062e+01 1.011484298706054688e+02
-9.626321411132812500e+01 -4.685110092163085938e+01 1.115668258666992188e+02
-8.521186828613281250e+01 -3.960681533813476562e+01 9.989169311523437500e+01
-8.521186828613281250e+01 -3.960681533813476562e+01 9.989169311523437500e+01
-1.093849868774414062e+02 -5.473398971557617188e+01 1.265254592895507812e+02
-9.124886322021484375e+01 -4.510403060913085938e+01 1.066556930541992188e+02
-6.152328872680664062e+01 -2.659310531616210938e+01 7.406515502929687500e+01
-1.177153778076171875e+02 -5.545669174194335938e+01 1.364565429687500000e+02
-7.918461608886718750e+01 -3.518863677978515625e+01 9.384063720703125000e+01
-1.815975761413574219e+01 -8.449846267700195312e+00 2.595453262329101562e+01
-8.314534759521484375e+01 -3.912664031982421875e+01 9.818853759765625000e+01
-6.303181838989257812e+01 -2.620477294921875000e+01 7.602082824707031250e+01
-6.303181838989257812e+01 -2.620477294921875000e+01 7.602082824707031250e+01
-1.083442974090576172e+01 -5.658580780029296875e+00 1.782584571838378906e+01
-1.083442974090576172e+01 -5.658580780029296875e+00 1.782584571838378906e+01
-9.433782196044921875e+01 -4.200972747802734375e+01 1.110518646240234375e+02
-9.034122467041015625e+01 -4.376914596557617188e+01 1.066630249023437500e+02
-8.903474426269531250e+01 -4.512165451049804688e+01 1.051037368774414062e+02
-8.309490966796875000e+01 -3.839995574951171875e+01 9.896002960205078125e+01
-8.350459289550781250e+01 -3.686801528930664062e+01 9.953704071044921875e+01
-8.928971862792968750e+01 -3.987583541870117188e+01 1.063711242675781250e+02
-8.634444427490234375e+01 -4.457439422607421875e+01 1.028030471801757812e+02
-7.753263092041015625e+01 -3.410932922363281250e+01 9.325885772705078125e+01
-8.167552185058593750e+01 -3.639658737182617188e+01 9.818902587890625000e+01
-1.197615280151367188e+02 -5.990633392333984375e+01 1.410846252441406250e+02
-8.210499572753906250e+01 -3.739076232910156250e+01 9.880947875976562500e+01
-8.741091156005859375e+01 -4.165560150146484375e+01 1.047502212524414062e+02
-9.308119964599609375e+01 -4.775746536254882812e+01 1.111080856323242188e+02
-8.441902923583984375e+01 -3.616881942749023438e+01 1.016949157714843750e+02
-4.898304748535156250e+01 -2.601721572875976562e+01 6.120480728149414062e+01
-1.041570129394531250e+02 -3.057960510253906250e+01 1.251333465576171875e+02
-9.580970001220703125e+01 -4.635647201538085938e+01 1.150312118530273438e+02
-5.259501647949218750e+01 -2.416778182983398438e+01 6.588092803955078125e+01
-8.640021514892578125e+01 -3.871039962768554688e+01 1.044823913574218750e+02
-8.514281463623046875e+01 -4.430588150024414062e+01 1.029684677124023438e+02
-8.514281463623046875e+01 -4.430588150024414062e+01 1.029684677124023438e+02
-7.559660339355468750e+01 -3.332290267944335938e+01 9.245104217529296875e+01
-4.602410793304443359e+00 -3.581405639648437500e+00 1.113072109222412109e+01
-9.848706817626953125e+01 -5.022922897338867188e+01 1.184938507080078125e+02
-1.269790267944335938e+02 -6.793404388427734375e+01 1.509518280029296875e+02
-1.269790267944335938e+02 -6.793404388427734375e+01 1.509518280029296875e+02
-9.595383453369140625e+01 -5.025905227661132812e+01 1.157483596801757812e+02
-1.012158889770507812e+02 -5.177343368530273438e+01 1.218804321289062500e+02
-1.237045516967773438e+02 -3.546002197265625000e+01 1.491421356201171875e+02
-9.096533203125000000e+01 -4.188844299316406250e+01 1.105749282836914062e+02
-8.619282531738281250e+01 -3.904283905029296875e+01 1.053080749511718750e+02
-1.346220092773437500e+02 -5.577278518676757812e+01 1.616199951171875000e+02
-6.212958908081054688e+01 -3.024293708801269531e+01 7.765409088134765625e+01
-1.042901229858398438e+02 -5.373058319091796875e+01 1.265890502929687500e+02
-1.045827560424804688e+02 -4.723913574218750000e+01 1.273139343261718750e+02
-9.933963012695312500e+01 -4.395127487182617188e+01 1.212867126464843750e+02
-9.978605651855468750e+01 -4.863970184326171875e+01 1.216638793945312500e+02
-1.179100646972656250e+02 -6.130146789550781250e+01 1.427278594970703125e+02
-9.908251190185546875e+01 -4.599078750610351562e+01 1.212596817016601562e+02
-4.400779247283935547e+00 -3.723684787750244141e+00 1.108062171936035156e+01
-4.400779247283935547e+00 -3.723684787750244141e+00 1.108062171936035156e+01
-9.257123565673828125e+01 -4.372974395751953125e+01 1.141074905395507812e+02
-8.919201660156250000e+01 -4.352957534790039062e+01 1.101623611450195312e+02
-1.211971817016601562e+02 -5.896413421630859375e+01 1.476618804931640625e+02
-1.006734542846679688e+02 -4.605503082275390625e+01 1.238624038696289062e+02
-1.115672302246093750e+02 -5.881557464599609375e+01 1.362501373291015625e+02
-1.115672302246093750e+02 -5.881557464599609375e+01 1.362501373291015625e+02
-9.893223762512207031e+00 -4.441691398620605469e+00 1.766531562805175781e+01
-1.027338333129882812e+02 -4.886149215698242188e+01 1.265703277587890625e+02
-1.136046752929687500e+02 -5.802059173583984375e+01 1.394282073974609375e+02
-1.136046752929687500e+02 -5.802059173583984375e+01 1.394282073974609375e+02
-1.091483840942382812e+02 -5.202935409545898438e+01 1.347347412109375000e+02
-1.456483306884765625e+02 -7.271658325195312500e+01 1.777765655517578125e+02
-1.067645492553710938e+02 -5.316865158081054688e+01 1.322099151611328125e+02
-1.156835708618164062e+02 -6.233816528320312500e+01 1.425212402343750000e+02
-1.156835708618164062e+02 -6.233816528320312500e+01 1.425212402343750000e+02
-1.104178161621093750e+02 -5.360317230224609375e+01 1.369850006103515625e+02
-1.081700744628906250e+02 -5.148088073730468750e+01 1.345506896972656250e+02
-1.546225433349609375e+02 -8.201864624023437500e+01 1.894248809814453125e+02
-1.056420822143554688e+02 -5.305425643920898438e+01 1.317566070556640625e+02
-1.066507873535156250e+02 -5.317835998535156250e+01 1.336244506835937500e+02
-1.213926315307617188e+02 -3.678801345825195312e+01 1.526743011474609375e+02
-8.056428527832031250e+01 -3.761117935180664062e+01 1.032233276367187500e+02
-1.272335739135742188e+02 -6.802227783203125000e+01 1.591292266845703125e+02
-1.270879135131835938e+02 -6.905665588378906250e+01 1.591268005371093750e+02
-1.270879135131835938e+02 -6.905665588378906250e+01 1.591268005371093750e+02
-1.116572875976562500e+02 -5.585208892822265625e+01 1.408913421630859375e+02
-1.116572875976562500e+02 -5.585208892822265625e+01 1.408913421630859375e+02
-8.380929565429687500e+01 -3.995554351806640625e+01 1.078011779785156250e+02
-1.189485473632812500e+02 -5.616526031494140625e+01 1.504454345703125000e+02
-1.106516647338867188e+02 -5.101747131347656250e+01 1.404685821533203125e+02
-1.125008697509765625e+02 -5.970201873779296875e+01 1.427610321044921875e+02
-1.148400421142578125e+02 -5.894037246704101562e+01 1.457690277099609375e+02
-2.340619812011718750e+02 -6.932006072998046875e+01 2.941496276855468750e+02
-1.276441574096679688e+02 -6.424299621582031250e+01 1.621378631591796875e+02
-1.276441574096679688e+02 -6.424299621582031250e+01 1.621378631591796875e+02
-1.196211776733398438e+02 -5.577415847778320312e+01 1.526706848144531250e+02
-5.951439941406250000e+03 -1.784475097656250000e+03 7.358881347656250000e+03
-1.340066528320312500e+02 -6.369254302978515625e+01 1.707364959716796875e+02
-8.100576782226562500e+01 -2.464396286010742188e+01 1.065637588500976562e+02
-1.589505004882812500e+01 -7.304876804351806641e+00 2.596944236755371094e+01
-7.864887237548828125e+01 -2.673698234558105469e+01 1.039174270629882812e+02
-1.211645584106445312e+02 -6.686071777343750000e+01 1.554033813476562500e+02
-1.275128021240234375e+02 -6.801203155517578125e+01 1.635585784912109375e+02
-1.275128021240234375e+02 -6.801203155517578125e+01 1.635585784912109375e+02
-1.078593978881835938e+02 -5.343035125732421875e+01 1.403384857177734375e+02
-1.078593978881835938e+02 -5.343035125732421875e+01 1.403384857177734375e+02
-6.589579772949218750e+01 -2.260457801818847656e+01 8.881508636474609375e+01
-7.913860321044921875e+01 -2.495320510864257812e+01 1.055276947021484375e+02
-1.269654006958007812e+02 -7.029312133789062500e+01 1.639159698486328125e+02
-1.254993057250976562e+02 -6.669784545898437500e+01 1.626756286621093750e+02
-1.223616256713867188e+02 -6.718066406250000000e+01 1.588741302490234375e+02
-1.223616256713867188e+02 -6.718066406250000000e+01 1.588741302490234375e+02
-1.074574203491210938e+02 -5.239435958862304688e+01 1.407512512207031250e+02
-1.317575836181640625e+02 -6.260783767700195312e+01 1.712663116455078125e+02
-1.367223815917968750e+02 -6.667249298095703125e+01 1.790380096435546875e+02
-1.250491943359375000e+02 -6.553309631347656250e+01 1.645925140380859375e+02
-1.250491943359375000e+02 -6.553309631347656250e+01 1.645925140380859375e+02
-1.243476638793945312e+02 -6.686901092529296875e+01 1.637354125976562500e+02
-1.322281646728515625e+02 -7.551497650146484375e+01 1.734837188720703125e+02
-1.322281646728515625e+02 -7.551497650146484375e+01 1.734837188720703125e+02
-1.240775909423828125e+02 -6.439744567871093750e+01 1.638330230712890625e+02
-1.302529144287109375e+02 -6.940274810791015625e+01 1.725721130371093750e+02
-1.302529144287109375e+02 -6.940274810791015625e+01 1.725721130371093750e+02
-1.283944091796875000e+02 -6.424962615966796875e+01 1.704698181152343750e+02
-1.283944091796875000e+02 -6.424962615966796875e+01 1.704698181152343750e+02
-1.422647247314453125e+02 -7.937781524658203125e+01 1.882482604980468750e+02
-1.368176422119140625e+02 -7.907198333740234375e+01 1.813655853271484375e+02
-1.527574157714843750e+02 -8.076075744628906250e+01 2.025461273193359375e+02
-1.038458251953125000e+02 -5.314765930175781250e+01 1.402798004150390625e+02
-1.116166076660156250e+02 -5.617081832885742188e+01 1.503585968017578125e+02
-6.382798194885253906e+00 -3.942851543426513672e+00 1.487246322631835938e+01
-4.785414218902587891e+00 -3.635689258575439453e+00 1.280387306213378906e+01
-1.328779449462890625e+02 -7.161576843261718750e+01 1.778967895507812500e+02
-1.328779449462890625e+02 -7.161576843261718750e+01 1.778967895507812500e+02
-1.378936462402343750e+02 -7.498445892333984375e+01 1.844956665039062500e+02
-1.312294616699218750e+02 -6.587031555175781250e+01 1.765046844482421875e+02
-6.825320720672607422e+00 -4.304297924041748047e+00 1.552088928222656250e+01
-8.766860961914062500e+00 -4.537392616271972656e+00 1.807651138305664062e+01
-1.293126525878906250e+02 -6.601541900634765625e+01 1.744073791503906250e+02
-1.293126525878906250e+02 -6.601541900634765625e+01 1.744073791503906250e+02
-1.305478057861328125e+02 -7.611573791503906250e+01 1.759032135009765625e+02
-1.310177307128906250e+02 -7.304639434814453125e+01 1.768139648437500000e+02
-1.588867950439453125e+02 -9.389567565917968750e+01 2.127810821533203125e+02
-1.537142486572265625e+02 -9.236952209472656250e+01 2.061920013427734375e+02
-1.282354125976562500e+02 -7.323873901367187500e+01 1.735783691406250000e+02
-1.502971038818359375e+02 -8.836273956298828125e+01 2.023323669433593750e+02
-6.273890018463134766e+00 -3.897129297256469727e+00 1.494414997100830078e+01
-5.852596759796142578e+00 -4.118710517883300781e+00 1.437381649017333984e+01
-1.164187145233154297e+01 -5.337933540344238281e+00 2.205587577819824219e+01
-1.486863555908203125e+02 -8.378802490234375000e+01 2.012168731689453125e+02
-1.486863555908203125e+02 -8.378802490234375000e+01 2.012168731689453125e+02
-1.335692596435546875e+02 -8.045713806152343750e+01 1.818962402343750000e+02
-1.290560455322265625e+02 -7.419291687011718750e+01 1.762857360839843750e+02
-1.290560455322265625e+02 -7.419291687011718750e+01 1.762857360839843750e+02
-1.573339080810546875e+02 -8.523868560791015625e+01 2.142769622802734375e+02
-1.311849060058593750e+02 -7.588270568847656250e+01 1.796936645507812500e+02
-1.421758422851562500e+02 -7.902332305908203125e+01 1.950168762207031250e+02
-1.452654266357421875e+02 -8.819081878662109375e+01 1.987127838134765625e+02
-7.052981853485107422e+00 -4.238878250122070312e+00 1.623872947692871094e+01
-1.509863433837890625e+02 -8.500061798095703125e+01 2.070768585205078125e+02
-1.509863433837890625e+02 -8.500061798095703125e+01 2.070768585205078125e+02
-1.586927947998046875e+02 -9.386365509033203125e+01 2.171294708251953125e+02
-1.586927947998046875e+02 -9.386365509033203125e+01 2.171294708251953125e+02
-6.943868160247802734e+00 -4.472229957580566406e+00 1.612092399597167969e+01
-1.432463226318359375e+02 -8.661585235595703125e+01 1.974763641357421875e+02
-8.230144500732421875e+00 -4.463466167449951172e+00 1.794667053222656250e+01
-7.673483848571777344e+00 -4.599814891815185547e+00 1.719216728210449219e+01
-7.870819091796875000e+00 -4.503734588623046875e+00 1.747149276733398438e+01
-7.518896579742431641e+00 -4.745460033416748047e+00 1.700527763366699219e+01
-1.501146850585937500e+02 -7.782753753662109375e+01 2.086872863769531250e+02
-8.516614913940429688e+00 -4.878078937530517578e+00 1.844169807434082031e+01
-1.575433044433593750e+02 -9.357914733886718750e+01 2.192871093750000000e+02
-1.521225433349609375e+02 -8.684240722656250000e+01 2.122019805908203125e+02
-1.521225433349609375e+02 -8.684240722656250000e+01 2.122019805908203125e+02
-1.641381378173828125e+02 -9.505160522460937500e+01 2.283719482421875000e+02
-1.641381378173828125e+02 -9.505160522460937500e+01 2.283719482421875000e+02
-9.023013114929199219e+00 -4.658746242523193359e+00 1.926540756225585938e+01
-1.416318817138671875e+02 -7.818815612792968750e+01 1.987931976318359375e+02
-8.908088684082031250e+00 -4.978363513946533203e+00 1.911897850036621094e+01
-8.820835113525390625e+00 -4.600918769836425781e+00 1.901882743835449219e+01
-8.735115051269531250e+00 -5.386325836181640625e+00 1.887323951721191406e+01
-1.004719829559326172e+01 -5.702585220336914062e+00 2.067531967163085938e+01
-1.552430114746093750e+02 -8.243857574462890625e+01 2.178303985595703125e+02
-1.235064620971679688e+02 -7.394348907470703125e+01 1.747671661376953125e+02
-1.517846984863281250e+02 -8.161834716796875000e+01 2.140759429931640625e+02
-8.749368667602539062e+00 -5.183650493621826172e+00 1.902743530273437500e+01
-8.749368667602539062e+00 -5.183650493621826172e+00 1.902743530273437500e+01
-8.749368667602539062e+00 -5.183650493621826172e+00 1.902743530273437500e+01
-1.126827239990234375e+02 -6.044921112060546875e+01 1.615408935546875000e+02
-9.452258110046386719e+00 -5.600457668304443359e+00 2.005396080017089844e+01
-9.452258110046386719e+00 -5.600457668304443359e+00 2.005396080017089844e+01
-2.076615447998046875e+02 -1.233182220458984375e+02 2.911426391601562500e+02
-2.076615447998046875e+02 -1.233182220458984375e+02 2.911426391601562500e+02
-2.434681177139282227e+00 -2.816476821899414062e+00 1.041407108306884766e+01
-1.013146495819091797e+01 -5.553780078887939453e+00 2.105799865722656250e+01
-9.657970428466796875e+00 -5.533423423767089844e+00 2.040363311767578125e+01
-1.591741333007812500e+02 -9.343453979492187500e+01 2.258897705078125000e+02
-1.668744201660156250e+02 -9.198307800292968750e+01 2.371717224121093750e+02
-1.440138397216796875e+02 -7.830584716796875000e+01 2.059134826660156250e+02
-1.440138397216796875e+02 -7.830584716796875000e+01 2.059134826660156250e+02
-9.899435997009277344e+00 -5.996732234954833984e+00 2.081425285339355469e+01
-1.569195556640625000e+02 -8.749288940429687500e+01 2.248037872314453125e+02
-1.113720321655273438e+01 -5.739367961883544922e+00 2.275413131713867188e+01
-1.444335632324218750e+02 -8.335339355468750000e+01 2.079614410400390625e+02
-1.131475257873535156e+01 -6.142702102661132812e+00 2.302549171447753906e+01
-1.109799861907958984e+01 -6.392515182495117188e+00 2.273069190979003906e+01
-1.215896224975585938e+01 -5.853429794311523438e+00 2.427613258361816406e+01
-1.568210906982421875e+02 -8.662622070312500000e+01 2.275248870849609375e+02
-1.478116302490234375e+02 -8.998345184326171875e+01 2.145432434082031250e+02
-1.579883270263671875e+02 -8.882120513916015625e+01 2.299909973144531250e+02
-1.581058654785156250e+02 -8.372001647949218750e+01 2.306048431396484375e+02
-1.529616394042968750e+02 -8.371839904785156250e+01 2.233289489746093750e+02
-1.684517822265625000e+02 -9.387104034423828125e+01 2.461099243164062500e+02
-1.565842437744140625e+02 -9.238028717041015625e+01 2.291117858886718750e+02
-1.557060527801513672e+01 -7.338499069213867188e+00 2.956377410888671875e+01
-1.504078826904296875e+02 -9.115303039550781250e+01 2.206235198974609375e+02
-1.830966186523437500e+02 -1.192556381225585938e+02 2.675187988281250000e+02
-1.440679626464843750e+02 -8.961219787597656250e+01 2.128257751464843750e+02
-1.587227783203125000e+02 -9.019449615478515625e+01 2.343061828613281250e+02
-1.638200988769531250e+02 -9.066973876953125000e+01 2.421837310791015625e+02
-1.496310043334960938e+01 -8.300397872924804688e+00 2.896589469909667969e+01
-1.496310043334960938e+01 -8.300397872924804688e+00 2.896589469909667969e+01
-1.583408966064453125e+02 -9.929770660400390625e+01 2.342063293457031250e+02
-1.602713928222656250e+02 -9.808499145507812500e+01 2.386522064208984375e+02
-2.261240081787109375e+02 -1.450769348144531250e+02 3.335500793457031250e+02
-1.581945800781250000e+02 -9.260432434082031250e+01 2.362337188720703125e+02
-2.254714965820312500e+02 -1.226595764160156250e+02 3.349672851562500000e+02
-1.700783996582031250e+02 -1.085973510742187500e+02 2.539016876220703125e+02
-1.357464141845703125e+02 -8.708880615234375000e+01 2.046800689697265625e+02
-1.663942565917968750e+02 -9.352076721191406250e+01 2.500353088378906250e+02
-1.941493225097656250e+02 -1.138340911865234375e+02 2.902484436035156250e+02
-1.508755798339843750e+02 -9.181702423095703125e+01 2.275683135986328125e+02
-1.643544921875000000e+02 -1.057340393066406250e+02 2.478446350097656250e+02
-1.813553619384765625e+02 -1.132469635009765625e+02 2.734406433105468750e+02
-1.890354003906250000e+02 -1.066952590942382812e+02 2.873941345214843750e+02
-1.890354003906250000e+02 -1.066952590942382812e+02 2.873941345214843750e+02
-1.679406585693359375e+02 -1.113477020263671875e+02 2.558913421630859375e+02
-1.679406585693359375e+02 -1.113477020263671875e+02 2.558913421630859375e+02
-1.742152252197265625e+02 -1.108777999877929688e+02 2.659060363769531250e+02
-2.095317649841308594e+01 -1.102013397216796875e+01 3.919855117797851562e+01
-1.763117980957031250e+02 -1.156745223999023438e+02 2.715586242675781250e+02
-1.574771575927734375e+02 -9.165559387207031250e+01 2.446351470947265625e+02
-1.694894714355468750e+02 -1.144248123168945312e+02 2.617694702148437500e+02
-1.694894714355468750e+02 -1.144248123168945312e+02 2.617694702148437500e+02
-1.735675659179687500e+02 -1.096775894165039062e+02 2.686940917968750000e+02
-1.723107299804687500e+02 -1.156313476562500000e+02 2.676803283691406250e+02
-1.723107299804687500e+02 -1.156313476562500000e+02 2.676803283691406250e+02
-1.501753387451171875e+02 -8.741036987304687500e+01 2.351652832031250000e+02
-1.501753387451171875e+02 -8.741036987304687500e+01 2.351652832031250000e+02
-6.177857971191406250e+01 -3.683967590332031250e+01 1.014454498291015625e+02
-1.529234008789062500e+02 -9.436660766601562500e+01 2.398194274902343750e+02
-1.529234008789062500e+02 -9.436660766601562500e+01 2.398194274902343750e+02
-1.925252990722656250e+02 -1.256038742065429688e+02 3.000967102050781250e+02
-7.414598846435546875e+01 -4.375981521606445312e+01 1.211026458740234375e+02
-2.852850341796875000e+02 -1.817263793945312500e+02 4.444832458496093750e+02
-1.824902496337890625e+02 -7.456739807128906250e+01 2.910759887695312500e+02
-1.735720977783203125e+02 -1.228459930419921875e+02 2.761112365722656250e+02
-1.735720977783203125e+02 -1.228459930419921875e+02 2.761112365722656250e+02
-1.659326019287109375e+02 -1.151654968261718750e+02 2.657262878417968750e+02
-1.659326019287109375e+02 -1.151654968261718750e+02 2.657262878417968750e+02
-1.850448913574218750e+02 -7.602190399169921875e+01 2.997774353027343750e+02
-1.646965484619140625e+02 -1.166948699951171875e+02 2.655270690917968750e+02
-5.289244842529296875e+01 -2.723547554016113281e+01 9.154676818847656250e+01
-1.596502838134765625e+02 -1.097925567626953125e+02 2.581228637695312500e+02
-1.953715515136718750e+02 -1.308771209716796875e+02 3.145675659179687500e+02
-1.870627899169921875e+02 -1.208771896362304688e+02 3.018258666992187500e+02
-7.921257324218750000e+02 -3.214523315429687500e+02 1.272585815429687500e+03
-1.692444763183593750e+02 -1.040838851928710938e+02 2.769114379882812500e+02
-1.844170989990234375e+02 -1.351106872558593750e+02 3.004837341308593750e+02
-2.815559692382812500e+02 -1.196113204956054688e+02 4.607268371582031250e+02
-1.888264770507812500e+02 -1.285672149658203125e+02 3.086150512695312500e+02
-2.083789367675781250e+02 -1.430974426269531250e+02 3.404310607910156250e+02
-1.869390411376953125e+02 -1.231760406494140625e+02 3.066367797851562500e+02
-1.926058502197265625e+02 -1.214362335205078125e+02 3.161423645019531250e+02
-1.926058502197265625e+02 -1.214362335205078125e+02 3.161423645019531250e+02
-1.836597290039062500e+02 -1.322777557373046875e+02 3.012929382324218750e+02
-1.844758453369140625e+02 -1.188672714233398438e+02 3.035634155273437500e+02
-2.028636474609375000e+02 -1.181245040893554688e+02 3.341375122070312500e+02
-1.952292327880859375e+02 -1.316615753173828125e+02 3.216228027343750000e+02
-2.101368408203125000e+02 -1.456410064697265625e+02 3.462034912109375000e+02
-2.101368408203125000e+02 -1.456410064697265625e+02 3.462034912109375000e+02
-1.305718688964843750e+02 -5.649197006225585938e+01 2.207181091308593750e+02
-2.223066101074218750e+02 -1.637472839355468750e+02 3.666304321289062500e+02
-1.941394805908203125e+02 -1.278908691406250000e+02 3.224461669921875000e+02
-1.866912689208984375e+02 -1.313378295898437500e+02 3.098672485351562500e+02
-2.491717224121093750e+02 -1.443571929931640625e+02 4.134940795898437500e+02
-1.665226593017578125e+02 -1.031516571044921875e+02 2.787946472167968750e+02
-1.874800720214843750e+02 -1.189379653930664062e+02 3.126535339355468750e+02
-1.694362335205078125e+02 -1.158768997192382812e+02 2.832492065429687500e+02
-1.777266998291015625e+02 -1.200075302124023438e+02 2.982487792968750000e+02
-1.933376159667968750e+02 -1.281995544433593750e+02 3.263098144531250000e+02
-5.140449829101562500e+02 -2.784361877441406250e+02 8.583035278320312500e+02
-1.822669830322265625e+02 -1.315459594726562500e+02 3.084210815429687500e+02
-1.022277679443359375e+02 -6.234427642822265625e+01 1.790552978515625000e+02
-1.678090515136718750e+02 -1.179413223266601562e+02 2.875816040039062500e+02
-1.849542541503906250e+02 -1.284125823974609375e+02 3.162014160156250000e+02
-1.849542541503906250e+02 -1.284125823974609375e+02 3.162014160156250000e+02
-1.958330841064453125e+02 -1.396195678710937500e+02 3.340597229003906250e+02
-1.958330841064453125e+02 -1.396195678710937500e+02 3.340597229003906250e+02
-1.907358703613281250e+02 -1.115716552734375000e+02 3.274060668945312500e+02
-1.844366760253906250e+02 -1.305720062255859375e+02 3.155113220214843750e+02
-1.919241180419921875e+02 -1.354102325439453125e+02 3.286944580078125000e+02
-1.919241180419921875e+02 -1.354102325439453125e+02 3.286944580078125000e+02
-1.542626342773437500e+02 -1.174400024414062500e+02 2.656251525878906250e+02
-2.688268127441406250e+02 -1.842866668701171875e+02 4.584652099609375000e+02
-2.688268127441406250e+02 -1.842866668701171875e+02 4.584652099609375000e+02
-2.548907470703125000e+02 -1.883144073486328125e+02 4.361035156250000000e+02
-2.786210632324218750e+02 -2.084339752197265625e+02 4.769491882324218750e+02
-2.786210632324218750e+02 -2.084339752197265625e+02 4.769491882324218750e+02
-3.018676452636718750e+02 -1.999134521484375000e+02 5.181456298828125000e+02
-2.034872283935546875e+02 -1.451297149658203125e+02 3.526302795410156250e+02
-2.034872283935546875e+02 -1.451297149658203125e+02 3.526302795410156250e+02
-2.042779235839843750e+02 -1.393972473144531250e+02 3.546859741210937500e+02
-2.042779235839843750e+02 -1.393972473144531250e+02 3.546859741210937500e+02
-2.042779235839843750e+02 -1.393972473144531250e+02 3.546859741210937500e+02
-2.248102264404296875e+02 -1.643819122314453125e+02 3.887663574218750000e+02
-1.869207763671875000e+02 -1.135267944335937500e+02 3.263426818847656250e+02
-2.024823303222656250e+02 -1.477659912109375000e+02 3.525617370605468750e+02
-2.088763122558593750e+02 -1.336152648925781250e+02 3.653205566406250000e+02
-1.727535552978515625e+02 -1.145319519042968750e+02 3.038266601562500000e+02
-1.727535552978515625e+02 -1.145319519042968750e+02 3.038266601562500000e+02
-2.983174133300781250e+02 -2.089254913330078125e+02 5.193121948242187500e+02
-2.983174133300781250e+02 -2.089254913330078125e+02 5.193121948242187500e+02
-2.228541107177734375e+02 -1.653576507568359375e+02 3.902482604980468750e+02
-1.399987640380859375e+02 -9.260201263427734375e+01 2.495073547363281250e+02
-1.800461425781250000e+02 -1.185329589843750000e+02 3.191047668457031250e+02
-2.031549377441406250e+02 -1.459421386718750000e+02 3.581903991699218750e+02
-2.031549377441406250e+02 -1.459421386718750000e+02 3.581903991699218750e+02
-1.829485321044921875e+02 -1.333077850341796875e+02 3.236547851562500000e+02
-1.829485321044921875e+02 -1.333077850341796875e+02 3.236547851562500000e+02
-2.733799743652343750e+02 -2.126833801269531250e+02 4.793602294921875000e+02
-1.975335845947265625e+02 -1.259744949340820312e+02 3.512718811035156250e+02
-2.299787750244140625e+02 -1.435900726318359375e+02 4.079470825195312500e+02
-2.153549804687500000e+02 -1.593613433837890625e+02 3.809724731445312500e+02
-1.917776794433593750e+02 -1.491418151855468750e+02 3.401753234863281250e+02
-1.917776794433593750e+02 -1.491418151855468750e+02 3.401753234863281250e+02
-1.986016540527343750e+02 -1.397625579833984375e+02 3.549052124023437500e+02
-2.006801300048828125e+02 -1.294196014404296875e+02 3.597754516601562500e+02
-2.332655487060546875e+02 -1.570439300537109375e+02 4.162530212402343750e+02
-2.234156646728515625e+02 -1.372658233642578125e+02 4.017537841796875000e+02
-2.095271911621093750e+02 -1.553723449707031250e+02 3.768753356933593750e+02
-2.161418304443359375e+02 -1.704646148681640625e+02 3.883468322753906250e+02
-2.087578125000000000e+02 -1.357847747802734375e+02 3.777589721679687500e+02
-1.674561004638671875e+02 -1.279581527709960938e+02 3.040743713378906250e+02
-1.802236633300781250e+02 -1.291509704589843750e+02 3.272004089355468750e+02
-1.995491027832031250e+02 -1.598494873046875000e+02 3.601751403808593750e+02
-2.071426544189453125e+02 -1.530686340332031250e+02 3.744934387207031250e+02
-1.859329681396484375e+02 -1.350592346191406250e+02 3.379661865234375000e+02
-1.859329681396484375e+02 -1.350592346191406250e+02 3.379661865234375000e+02
-2.634945678710937500e+02 -1.723354339599609375e+02 4.777822265625000000e+02
-2.156251068115234375e+02 -1.347613525390625000e+02 3.943574523925781250e+02
-2.156251068115234375e+02 -1.347613525390625000e+02 3.943574523925781250e+02
-1.998831329345703125e+02 -1.441618652343750000e+02 3.651412353515625000e+02
-2.003258361816406250e+02 -1.287432098388671875e+02 3.671481323242187500e+02
-1.960930175781250000e+02 -1.541982727050781250e+02 3.589475708007812500e+02
-2.069157562255859375e+02 -1.437557220458984375e+02 3.803116760253906250e+02
-1.897804260253906250e+02 -1.549864501953125000e+02 3.481247558593750000e+02
-1.897804260253906250e+02 -1.549864501953125000e+02 3.481247558593750000e+02
-2.120417327880859375e+02 -1.570889129638671875e+02 3.890669860839843750e+02
-2.120417327880859375e+02 -1.570889129638671875e+02 3.890669860839843750e+02
-1.958419647216796875e+02 -1.588891143798828125e+02 3.609389343261718750e+02
-2.546812896728515625e+02 -1.695634155273437500e+02 4.692936401367187500e+02
-2.352056274414062500e+02 -1.627550354003906250e+02 4.341901245117187500e+02
-2.218629455566406250e+02 -1.738267364501953125e+02 4.088783874511718750e+02
-2.218629455566406250e+02 -1.738267364501953125e+02 4.088783874511718750e+02
-2.059912567138671875e+02 -1.463000793457031250e+02 3.815912170410156250e+02
-1.750574340820312500e+02 -1.454010314941406250e+02 3.261761779785156250e+02
-1.971108551025390625e+02 -1.575382843017578125e+02 3.666045837402343750e+02
-1.971108551025390625e+02 -1.575382843017578125e+02 3.666045837402343750e+02
-1.822591094970703125e+02 -1.013463363647460938e+02 3.430156250000000000e+02
-2.178599090576171875e+02 -1.605016784667968750e+02 4.064070434570312500e+02
-2.099238586425781250e+02 -1.345840301513671875e+02 3.936726684570312500e+02
-2.319712524414062500e+02 -1.334606323242187500e+02 4.361920166015625000e+02
-2.065673828125000000e+02 -1.691616210937500000e+02 3.870010375976562500e+02
-1.857243041992187500e+02 -1.287114105224609375e+02 3.507304382324218750e+02
-1.857243041992187500e+02 -1.287114105224609375e+02 3.507304382324218750e+02
-1.694749145507812500e+02 -1.351137695312500000e+02 3.204313049316406250e+02
-1.976747741699218750e+02 -1.548813934326171875e+02 3.738108215332031250e+02
-2.589632873535156250e+02 -2.142581939697265625e+02 4.859547119140625000e+02
